-2.898731 3.191880 -1.052356 
-2.969534 4.600498 -0.896073 
-2.901476 4.046134 -0.754202 
-2.516277 4.089953 -1.025290 
-2.673003 3.901843 -0.969833 
-2.872596 3.481429 -0.641323 
-2.957340 3.272445 -0.580014 
-2.777621 3.523187 -0.867312 
-2.938027 3.384361 -0.837484 
-2.994025 4.661351 -0.659050 
-2.971833 4.190660 -0.558612 
-2.956146 2.989813 0.392260 
-2.981200 2.767432 0.421860 
-2.944901 3.600713 -0.438971 
-2.921660 3.258133 -0.360419 
-2.932944 3.740492 -0.719168 
-2.988410 3.484584 -0.646011 
-2.922062 2.950565 -0.524483 
-3.059838 4.772130 -0.053446 
-2.972638 4.173492 0.020092 
-3.025466 4.936297 -0.375241 
-2.972823 4.370615 -0.280325 
-3.004692 3.688328 0.072737 
-2.981620 3.323069 0.115159 
-2.939431 3.754518 -0.191737 
-3.005924 3.498408 -0.134863 
-2.952795 2.880754 0.164895 
-2.957719 3.003228 -0.071728 
-2.842702 4.424864 0.532874 
-2.931497 4.124862 0.565814 
-3.037210 4.950365 0.258761 
-3.030783 4.456023 0.299695 
-3.066333 3.757541 0.593331 
-3.325853 3.717643 0.646608 
-2.963921 3.791621 0.329804 
-3.004740 3.488465 0.367556 
-2.096518 3.286500 -1.043011 
-2.360815 3.344182 -1.066225 
-2.168591 3.227151 -1.240241 
-2.853768 3.172679 -1.040313 
-2.966733 4.644357 -0.902657 
-2.961632 4.170165 -0.778152 
-2.504997 4.115103 -1.029000 
-2.662306 3.925645 -0.972976 
-2.920585 3.574696 -0.658701 
-2.947190 3.292200 -0.581275 
-2.794394 3.579539 -0.879353 
-2.956707 3.438007 -0.848776 
-3.002550 4.723927 -0.667892 
-2.963504 4.220755 -0.561519 
-2.972588 3.035304 0.394169 
-2.971058 2.784163 0.422068 
-2.934093 3.622285 -0.440325 
-2.980549 3.354489 -0.374581 
-2.948778 3.797894 -0.729720 
-2.970674 3.497135 -0.645652 
-2.908126 2.964302 -0.524483 
-3.050069 4.806798 -0.054532 
-2.978461 4.223260 0.018514 
-3.046218 5.023874 -0.383736 
-2.979088 4.424097 -0.284669 
-2.989771 3.705571 0.072626 
-2.912446 3.277609 0.116771 
-2.981130 3.845840 -0.199775 
-3.018035 3.545792 -0.138061 
-2.960427 2.915820 0.164597 
-2.937994 3.011384 -0.071210 
-2.857952 4.495667 0.537028 
-2.946720 4.187404 0.570003 
-3.023120 4.980050 0.258921 
-3.031123 4.501669 0.300343 
-3.105861 3.843590 0.600538 
-3.334881 3.762960 0.650073 
-2.984911 3.856348 0.331418 
-3.019609 3.538903 0.369208 
-2.097208 3.322389 -1.052128 
-2.346141 3.356838 -1.066780 
-2.153359 3.237334 -1.240241 
-2.858178 3.207592 -1.048167 
-2.955243 4.674955 -0.906315 
-2.969334 4.222606 -0.786482 
-2.489556 4.133550 -1.030855 
-2.743435 4.084853 -1.013837 
-2.936964 3.629995 -0.667725 
-2.926367 3.300172 -0.580014 
-2.821369 3.650094 -0.895265 
-2.944303 3.456346 -0.850031 
-2.990702 4.754804 -0.670941 
-2.966334 4.267054 -0.567332 
-2.955487 3.046393 0.393996 
-2.966663 2.806312 0.422691 
-2.955163 3.684200 -0.448720 
-2.926447 3.325529 -0.367247 
-2.967701 3.860218 -0.741402 
-2.978388 3.539561 -0.652487 
-2.914962 2.895704 -0.296415 
-2.917323 3.002145 -0.530281 
-3.056916 4.868629 -0.057066 
-2.970051 4.253579 0.017797 
-3.026575 5.045017 -0.384526 
-2.982688 4.474429 -0.288651 
-3.008221 3.765110 0.071019 
-2.923568 3.321160 0.115965 
-2.979848 3.882071 -0.202071 
-2.985762 3.541761 -0.136317 
-2.959338 2.942509 0.164419 
-2.933418 3.035301 -0.072117 
-2.838844 4.512474 0.537272 
-2.978650 4.274647 0.576288 
-3.062986 5.100821 0.260021 
-3.042269 4.564004 0.301332 
-3.097615 3.870689 0.601792 
-3.335623 3.799502 0.652499 
-2.982408 3.891084 0.332074 
-3.014588 3.566768 0.369827 
-2.080524 3.330602 -1.051559 
-2.326986 3.363137 -1.065115 
-1.832360 3.087593 -1.164275 
-2.132833 3.239592 -1.236955 
-2.982857 4.769078 -0.923873 
-2.955070 4.244606 -0.788218 
-2.456234 4.121763 -1.024362 
-2.658903 4.000698 -0.986896 
-2.976151 3.714894 -0.683097 
-2.934400 3.340496 -0.585690 
-2.903127 3.794192 -0.931389 
-2.955918 3.502908 -0.859231 
-3.002773 4.807890 -0.678868 
-2.978961 4.313673 -0.574017 
-2.989997 3.101966 0.396772 
-2.997128 2.852551 0.425496 
-2.946028 3.696579 -0.449262 
-2.968573 3.394138 -0.377362 
-2.934249 3.841311 -0.734619 
-2.986310 3.571434 -0.657884 
-2.946317 2.945815 -0.303343 
-2.905156 3.008443 -0.529599 
-3.082533 4.944515 -0.060595 
-2.994535 4.316897 0.015429 
-3.047104 5.116218 -0.391638 
-3.008489 4.543374 -0.295168 
-3.013662 3.796557 0.070243 
-3.036376 3.469576 0.112218 
-2.978440 3.905736 -0.203547 
-3.001699 3.583083 -0.139370 
-2.947270 2.948944 0.164458 
-2.870300 2.988031 -0.067064 
-2.867680 4.590995 0.542282 
-2.973211 4.295427 0.577265 
-3.051013 5.117307 0.260092 
-3.043481 4.596809 0.301810 
-3.118723 3.922713 0.606022 
-3.351337 3.841351 0.656138 
-2.935286 3.854119 0.330611 
-3.011131 3.585362 0.370240 
-2.920467 3.025752 -0.735623 
-2.063052 3.325672 -1.047570 
-2.304327 3.353089 -1.059010 
-1.861391 3.160184 -1.191742 
-2.128911 3.255721 -1.240898 
-2.984335 4.805227 -0.929726 
-2.954133 4.271626 -0.792036 
-2.448181 4.137858 -1.026681 
-2.616013 3.963652 -0.974323 
-2.952270 3.708731 -0.679756 
-2.940888 3.368942 -0.589790 
-2.939309 3.867310 -0.949021 
-2.951224 3.519635 -0.861323 
-3.004838 4.862455 -0.686186 
-2.987846 4.369990 -0.581574 
-2.991800 3.133462 0.397813 
-2.955396 3.744789 -0.455220 
-2.986546 3.446881 -0.383938 
-2.973763 3.932165 -0.753084 
-2.970710 3.586975 -0.658243 
-2.932403 2.959667 -0.303343 
-2.836812 2.964799 -0.515957 
-3.059199 4.958986 -0.060595 
-2.993532 4.358875 0.014210 
-3.041012 5.161464 -0.395194 
-2.995844 4.570786 -0.296616 
-3.006782 3.824921 0.069745 
-3.027902 3.492867 0.111976 
-2.981471 3.948474 -0.206500 
-2.986063 3.598717 -0.139515 
-2.959906 2.989969 0.164081 
-2.920422 3.069881 -0.073154 
-3.009254 2.885941 -0.029747 
-2.855387 4.619786 0.543381 
-2.984743 4.355315 0.581175 
-3.050061 5.171349 0.260501 
-3.083606 4.704473 0.303719 
-3.128385 3.973543 0.609626 
-3.356787 3.884117 0.659256 
-2.969685 3.938428 0.332830 
-3.023798 3.634691 0.371823 
-2.935778 3.070826 -0.744410 
-2.047357 3.335357 -1.047570 
-2.283046 3.356002 -1.056235 
-1.840855 3.159111 -1.187723 
-2.103177 3.249928 -1.234326 
-2.954505 4.807477 -0.927165 
-2.951904 4.311414 -0.797590 
-2.341999 3.999444 -0.985408 
-2.601605 3.982438 -0.976119 
-2.921425 3.705495 -0.676079 
-2.949688 3.411005 -0.595781 
-2.830090 3.758902 -0.915477 
-2.957250 3.560457 -0.868851 
-3.023853 4.945893 -0.698686 
-2.967220 4.384021 -0.581574 
-3.005650 3.178183 0.399635 
-3.000401 2.909683 0.427677 
-2.980127 3.813551 -0.464698 
-2.974171 3.465411 -0.384696 
-2.952862 3.942978 -0.752331 
-2.995229 3.650900 -0.670116 
-2.923951 2.979156 -0.304298 
-2.914379 3.075977 -0.539148 
-3.055429 5.005837 -0.062315 
-2.982013 4.386112 0.013636 
-3.030581 5.199870 -0.397959 
-2.989558 4.608173 -0.299150 
-2.977747 3.824791 0.070243 
-3.016653 3.513136 0.111815 
-2.977054 3.981712 -0.208468 
-2.995847 3.644962 -0.142569 
-2.951349 3.009630 0.164002 
-3.002475 2.793163 0.190727 
-2.929040 3.108443 -0.075356 
-2.997065 2.901469 -0.029859 
-2.857352 4.672474 0.546192 
-2.999160 4.420342 0.585505 
-3.038663 5.208177 0.260731 
-3.046058 4.695536 0.303242 
-3.123023 4.005607 0.611349 
-3.364513 3.930033 0.662722 
-3.009291 4.031188 0.335302 
-2.984884 3.622795 0.370653 
-1.903992 3.154004 -1.435004 
-2.914580 3.077470 -0.742413 
-2.030633 3.343323 -1.047000 
-2.260705 3.357202 -1.052905 
-1.847325 3.205455 -1.203131 
-2.387442 3.051758 -0.971621 
-2.338904 3.128085 -1.210719 
-2.914582 4.792706 -0.920947 
-2.970515 4.382149 -0.809738 
-2.337612 4.035769 -0.992364 
-2.589212 4.004439 -0.978813 
-2.972613 3.808192 -0.695128 
-2.943928 3.436807 -0.598304 
-2.833203 3.800499 -0.923218 
-2.984223 3.626972 -0.883488 
-3.031993 5.012658 -0.708138 
-2.985358 4.455302 -0.591747 
-2.985210 3.186447 0.399288 
-2.966554 2.904353 0.426223 
-2.953693 3.816537 -0.462803 
-2.865965 3.372587 -0.366741 
-2.956320 3.986943 -0.759491 
-2.999225 3.690814 -0.676232 
-2.925009 3.008657 -0.306926 
-2.899852 3.089677 -0.539148 
-3.069741 5.083628 -0.065663 
-2.989413 4.441432 0.011842 
-3.021829 5.241749 -0.401120 
-2.998164 4.668996 -0.304218 
-3.034846 3.937349 0.066808 
-2.963552 3.484868 0.112943 
-2.962968 4.002129 -0.209124 
-2.984976 3.666739 -0.143296 
-2.980057 3.068239 0.163386 
-2.977547 2.796402 0.190787 
-2.948183 3.158893 -0.078595 
-2.990543 2.922494 -0.030415 
-2.853758 4.716718 0.548391 
-3.008548 4.478998 0.589275 
-3.063697 5.309260 0.261619 
-3.056543 4.760169 0.304265 
-3.147688 4.077317 0.616990 
-3.380955 3.986700 0.667400 
-2.997342 4.055007 0.335605 
-2.962690 3.630654 0.370378 
-1.890042 3.164532 -1.435776 
-2.920027 3.112732 -0.748404 
-2.013879 3.351205 -1.046430 
-2.238404 3.358267 -1.049575 
-1.840495 3.228917 -1.209160 
-2.326372 3.142132 -1.212003 
-2.874865 4.777667 -0.914728 
-2.959781 4.410770 -0.812862 
-2.386567 4.166973 -1.025290 
-2.572432 4.019867 -0.979711 
-2.948647 3.814325 -0.693457 
-2.944423 3.470124 -0.602403 
-2.810657 3.807497 -0.921498 
-2.955904 3.627411 -0.879724 
-3.030502 5.064303 -0.714845 
-2.983059 4.497264 -0.596688 
-2.952606 3.181334 0.398160 
-2.985710 2.950387 0.428612 
-2.971582 3.877791 -0.470927 
-2.946525 3.499329 -0.385708 
-2.949040 4.016723 -0.763259 
-2.997943 3.724743 -0.680909 
-2.886164 2.996509 -0.302626 
-2.917252 3.138143 -0.547333 
-3.083387 5.161664 -0.069011 
-2.967334 4.453812 0.011914 
-2.956001 5.183140 -0.392823 
-3.013795 4.741734 -0.310554 
-2.931930 3.839921 0.070687 
-2.966550 3.521625 0.112339 
-2.947586 4.020888 -0.209617 
-3.004219 3.725597 -0.147512 
-2.961432 3.077900 0.163445 
-2.980397 2.825436 0.190704 
-2.956147 3.197802 -0.080798 
-3.002483 2.961638 -0.032418 
-2.855913 4.771337 0.551323 
-3.009660 4.526247 0.592068 
-3.061084 4.816590 0.305117 
-3.135657 4.101645 0.617930 
-3.393070 4.039051 0.671559 
-3.023929 4.132246 0.337572 
-3.017654 3.732787 0.374300 
-2.065185 3.500329 -1.594177 
-2.914603 3.136563 -0.751200 
-1.989345 3.345769 -1.041301 
-2.234307 3.386344 -1.055680 
-1.827086 3.240850 -1.210500 
-2.528196 3.298305 -1.050584 
-2.339282 3.191436 -1.228053 
-2.861300 4.806409 -0.918020 
-2.956528 4.450834 -0.818416 
-2.404894 4.246090 -1.043840 
-2.562926 4.046712 -0.983753 
-2.953253 3.858049 -0.699807 
-2.956182 3.517062 -0.609341 
-2.782388 3.806451 -0.917628 
-2.958565 3.665542 -0.886416 
-3.032590 5.122866 -0.722772 
-2.984807 4.545897 -0.602792 
-2.973856 3.235146 0.400503 
-2.980310 2.972834 0.429235 
-2.919971 3.847374 -0.463344 
-2.960706 3.549568 -0.391777 
-2.956452 4.067254 -0.771927 
-2.990235 3.751083 -0.683787 
-2.908779 3.049097 -0.309077 
-2.923649 3.175180 -0.552789 
-2.972961 2.960779 -0.495315 
-3.064075 5.184759 -0.069464 
-2.978457 4.515978 0.009834 
-2.995579 5.311701 -0.405861 
-3.009578 4.784461 -0.313631 
-2.997603 3.965776 0.066808 
-2.987890 4.117313 -0.217982 
-3.002922 3.759887 -0.149402 
-2.967459 3.113661 0.163148 
-2.996123 2.866922 0.190552 
-2.957113 3.229455 -0.082353 
-2.974256 2.961751 -0.031305 
-2.872753 4.851917 0.556088 
-3.033595 4.608492 0.597794 
-4.222541 7.500831 0.283613 
-3.069450 4.879910 0.306106 
-3.104339 4.100419 0.616363 
-3.399637 4.085502 0.675024 
-2.990444 4.126950 0.336967 
-3.015122 3.765608 0.375126 
-2.143394 3.674730 -1.673764 
-2.878695 3.127065 -0.744810 
-1.879385 3.192536 -0.985457 
-2.213020 3.388826 -1.052905 
-1.879758 3.373345 -1.260744 
-2.534562 3.339460 -1.060860 
-2.357291 3.248631 -1.247313 
-2.824759 4.796055 -0.912899 
-2.963864 4.507370 -0.827440 
-2.419703 4.320364 -1.060998 
-2.562619 4.088368 -0.991835 
-2.901922 3.827745 -0.690450 
-2.984102 3.583827 -0.620378 
-2.778057 3.838583 -0.922788 
-2.969540 3.714424 -0.896035 
-3.036175 5.184980 -0.731309 
-2.990506 4.601263 -0.610059 
-2.979962 3.272889 0.401891 
-2.986094 3.006564 0.430690 
-2.933722 3.904034 -0.470656 
-2.957940 3.580226 -0.394559 
-2.953201 4.103543 -0.777202 
-2.972525 3.765132 -0.683787 
-2.902508 3.071480 -0.310510 
-2.903377 3.183066 -0.551425 
-2.965977 2.981709 -0.496938 
-3.082648 5.273493 -0.073355 
-2.980256 4.565000 0.008327 
-4.246191 7.635983 -0.667811 
-3.010325 4.835685 -0.317613 
-3.025276 4.042523 0.064647 
-2.940923 3.558632 0.112097 
-2.956907 4.115101 -0.216342 
-2.889236 3.654049 -0.138207 
-2.963666 3.139310 0.162989 
-2.985474 2.883770 0.190537 
-2.969835 3.274565 -0.085073 
-3.005613 3.020756 -0.034865 
-2.874882 4.908579 0.559143 
-3.026105 4.644401 0.599609 
-4.197791 7.539899 0.283808 
-3.065578 4.924793 0.306720 
-3.071915 4.097387 0.614640 
-3.413490 4.141292 0.679529 
-2.994107 4.173605 0.337976 
-3.003596 3.787572 0.375470 
-2.115108 3.665549 -1.664492 
-2.887535 3.166805 -0.751999 
-1.793790 3.078266 -0.943289 
-2.202292 3.407252 -1.055680 
-1.888098 3.426892 -1.278832 
-2.509619 3.338996 -1.056533 
-2.405479 3.349338 -1.284549 
-2.790344 4.788870 -0.908510 
-2.959908 4.547616 -0.832994 
-2.502958 4.521172 -1.112474 
-2.555759 4.120207 -0.997223 
-2.956722 3.939544 -0.711170 
-2.960856 3.590266 -0.618801 
-2.798321 3.905824 -0.937410 
-2.905551 3.670362 -0.880142 
-3.048092 5.262672 -0.742590 
-2.981789 3.306286 0.403019 
-2.995854 3.044659 0.432455 
-2.918815 3.922604 -0.471469 
-2.987840 3.650675 -0.403916 
-2.904410 4.075671 -0.767404 
-2.993795 3.828483 -0.695299 
-2.890697 3.088039 -0.310988 
-2.983670 2.901761 -0.257817 
-2.915904 3.227586 -0.558587 
-2.967226 3.011021 -0.500508 
-3.100452 5.362517 -0.077246 
-3.035201 4.696143 0.003306 
-4.218745 7.671628 -0.669589 
-3.034862 4.925915 -0.325759 
-2.994373 4.040611 0.065201 
-3.010836 3.677184 0.109357 
-2.942070 4.135509 -0.216998 
-3.024326 3.859947 -0.156090 
-2.982769 3.189964 0.162492 
-2.950242 2.876997 0.190651 
-2.959671 3.294494 -0.085592 
-2.988524 3.032059 -0.034643 
-2.896397 5.000006 0.564641 
-3.019433 4.682012 0.601564 
-4.140150 7.519236 0.283400 
-3.058182 4.964653 0.307232 
-3.043129 4.098963 0.613386 
-3.429427 4.200377 0.684381 
-2.996247 4.218750 0.338934 
-2.998144 3.817337 0.376158 
-2.094193 3.669044 -1.661401 
-2.927378 3.241791 -0.768775 
-1.766975 3.065002 -0.935881 
-2.174708 3.399861 -1.049575 
-1.903989 3.495539 -1.302949 
-2.489296 3.344578 -1.054370 
-2.346152 3.298614 -1.258869 
-2.788198 4.837837 -0.916191 
-2.956712 4.589576 -0.838895 
-2.715815 4.965843 -1.229800 
-2.331661 3.802756 -0.907867 
-2.927613 3.939134 -0.708162 
-2.961515 3.625495 -0.623216 
-2.776520 3.914170 -0.936120 
-2.838399 3.621183 -0.862995 
-3.040345 5.287682 -0.745334 
-2.988617 4.677807 -0.619360 
-2.983311 3.329100 0.403800 
-3.021400 3.089545 0.435052 
-2.976644 4.027736 -0.487718 
-2.977617 3.661575 -0.404169 
-2.977206 4.207061 -0.796045 
-2.998768 3.859529 -0.700336 
-2.926660 3.146820 -0.319111 
-2.967392 2.904212 -0.256727 
-2.921443 3.254423 -0.562679 
-2.988319 3.051160 -0.507649 
-3.074704 5.356598 -0.076432 
-3.020433 4.705655 0.003306 
-4.180398 7.658597 -0.666625 
-3.037172 4.964230 -0.328836 
-3.011088 4.090400 0.063816 
-2.965608 4.197010 -0.222247 
-3.010951 3.867862 -0.155945 
-2.970028 3.196373 0.162532 
-2.969914 2.914087 0.190499 
-2.949307 3.303776 -0.085592 
-3.029599 3.092482 -0.038649 
-2.903385 5.048985 0.567452 
-3.040476 4.746751 0.606173 
-4.102200 7.505838 0.283134 
-3.056234 4.996352 0.307675 
-3.233564 4.387141 0.640492 
-3.467983 4.274324 0.691485 
-3.004722 4.259292 0.339892 
-3.023279 3.873813 0.378222 
-2.051173 3.619236 -1.634357 
-2.936681 3.272967 -0.774767 
-2.952370 3.006285 -0.692741 
-1.781778 3.113980 -0.950697 
-2.162976 3.405061 -1.049020 
-1.913361 3.539764 -1.318357 
-1.850065 3.069562 -1.134428 
-2.506019 3.389709 -1.067350 
-2.948287 5.156298 -0.982401 
-2.969014 4.640194 -0.847572 
-2.691919 4.958924 -1.225627 
-2.380072 3.907928 -0.934360 
-2.944295 3.988125 -0.716517 
-2.965147 3.653100 -0.627000 
-2.613497 3.706506 -0.878063 
-2.864531 3.677706 -0.875960 
-3.036731 5.339842 -0.752042 
-2.997434 4.740197 -0.627789 
-2.976814 3.353635 0.404407 
-3.002612 3.099470 0.434741 
-2.950660 4.032087 -0.486093 
-2.977870 3.697102 -0.407709 
-2.967418 4.235573 -0.799436 
-3.004707 3.904674 -0.707531 
-2.894423 3.141486 -0.316005 
-2.969326 2.933435 -0.259125 
-2.919082 3.282958 -0.566090 
-2.997416 3.089144 -0.513167 
-3.056282 5.383219 -0.077066 
-3.033849 4.775345 0.000939 
-4.126400 7.644882 -0.662872 
-3.022057 4.992081 -0.330284 
-3.006980 4.125625 0.063096 
-2.998283 3.720869 0.108833 
-2.953737 4.222411 -0.223395 
-2.981654 3.867848 -0.154636 
-2.958969 3.214771 0.162472 
-2.966157 2.937840 0.190445 
-2.954718 3.341682 -0.087665 
-3.017791 3.109574 -0.038871 
-2.907957 5.113059 0.570995 
-3.062188 4.829911 0.611899 
-3.057687 5.051646 0.308493 
-3.225699 4.420107 0.642215 
-3.503040 4.358697 0.699109 
-3.001666 4.298077 0.340649 
-3.008683 3.892742 0.378429 
-2.051041 3.659543 -1.649038 
-2.919932 3.285297 -0.774367 
-2.972618 3.055139 -0.702235 
-1.828605 3.232907 -0.988307 
-2.138641 3.402255 -1.044579 
-1.895781 3.547074 -1.317687 
-1.852226 3.105706 -1.145601 
-2.469718 3.373389 -1.057615 
-2.279296 3.257694 -1.234473 
-2.908387 3.130414 -0.994882 
-2.991187 5.290236 -1.008007 
-2.934376 4.634224 -0.843407 
-2.714130 5.057474 -1.248814 
-2.409353 3.997288 -0.955464 
-2.933556 4.013141 -0.718856 
-2.966588 3.690018 -0.631730 
-2.654769 3.804003 -0.900856 
-2.873637 3.725087 -0.885161 
-3.037501 5.400718 -0.760274 
-3.004671 4.801101 -0.635927 
-2.968841 3.376675 0.404928 
-3.025546 3.152268 0.437545 
-2.948941 4.070107 -0.490155 
-2.951695 3.700284 -0.405939 
-2.885193 4.158814 -0.778333 
-3.017492 3.959311 -0.716885 
-2.952718 3.236203 -0.329145 
-3.005044 2.996222 -0.266757 
-2.853122 3.238701 -0.552789 
-2.960806 3.080603 -0.507973 
-4.116353 7.349793 -0.178239 
-3.042389 4.838517 -0.001142 
-4.061443 7.609725 -0.656748 
-3.041803 5.077841 -0.337886 
-3.006092 4.165782 0.062209 
-3.005831 3.766078 0.108027 
-2.968731 4.287259 -0.228480 
-2.974364 3.896067 -0.155945 
-2.973237 3.261368 0.162035 
-2.982165 2.981295 0.190286 
-2.945469 3.363114 -0.088313 
-2.983608 3.103723 -0.037313 
-2.909076 5.172054 0.574172 
-3.073570 4.898214 0.616367 
-3.051442 5.095087 0.309073 
-3.210635 4.443367 0.642999 
-3.496190 4.392241 0.701015 
-3.026533 4.378181 0.342667 
-3.012324 3.935332 0.379668 
-2.029352 3.661072 -1.645174 
-2.864544 3.253186 -0.761985 
-2.965044 3.076140 -0.704134 
-1.963999 3.515265 -1.081190 
-2.118483 3.405795 -1.042359 
-1.874697 3.547609 -1.314338 
-1.842428 3.122500 -1.148887 
-2.293579 3.161058 -0.980274 
-2.503134 3.133550 -0.970670 
-2.288491 3.304373 -1.249239 
-2.896207 3.146949 -0.995890 
-3.025270 5.410927 -1.030686 
-2.979945 4.754501 -0.865622 
-3.233617 6.105531 -1.527523 
-2.657483 4.450700 -1.074456 
-2.923795 4.039748 -0.721530 
-2.964031 3.722416 -0.635514 
-2.643421 3.826150 -0.903436 
-2.889535 3.781919 -0.896871 
-3.045392 5.475571 -0.770945 
-3.006152 4.853789 -0.642612 
-2.977663 3.419400 0.406576 
-3.006503 3.162173 0.437234 
-2.941196 4.100119 -0.492863 
-2.975092 3.765302 -0.414285 
-2.964892 4.318594 -0.812249 
-3.002380 3.978179 -0.717965 
-2.928176 3.239715 -0.327472 
-2.976793 2.996333 -0.264577 
-2.918893 3.346147 -0.574275 
-2.988710 3.138571 -0.518035 
-3.016001 5.431042 -0.078061 
-3.056782 4.912027 -0.003652 
-4.192692 7.947880 -0.692504 
-3.039324 5.128008 -0.341688 
-3.014123 4.219083 0.060880 
-3.005528 3.802069 0.107463 
-2.974227 4.339143 -0.232253 
-3.038342 4.017805 -0.165832 
-2.965825 3.284295 0.161916 
-2.977998 3.005199 0.190233 
-2.872429 3.310290 -0.082612 
-2.989736 3.139315 -0.038982 
-2.925108 5.259153 0.579303 
-3.090737 4.976871 0.621674 
-3.038694 5.128285 0.309448 
-3.241519 4.531666 0.650049 
-3.482898 4.418022 0.702055 
-3.056317 4.466892 0.344937 
-3.021709 3.985974 0.381250 
-1.989284 3.628394 -1.625085 
-2.919541 3.348300 -0.783954 
-2.955974 3.095726 -0.705653 
-1.959324 3.546372 -1.088598 
-2.105464 3.420630 -1.044024 
-1.874332 3.588246 -1.327066 
-1.861430 3.188004 -1.171890 
-2.253059 3.135693 -0.967835 
-2.198627 3.205281 -1.204298 
-4.243286 7.696567 -1.512442 
-2.976333 4.798533 -0.871869 
-3.221833 6.153513 -1.536334 
-2.664470 4.510019 -1.087029 
-2.962876 4.135530 -0.738574 
-2.976010 3.773400 -0.643082 
-2.626455 3.840182 -0.903866 
-2.887133 3.815685 -0.902308 
-4.208879 7.673586 -1.154495 
-2.962813 3.434915 0.406663 
-2.991569 3.176305 0.437234 
-2.951458 4.156092 -0.499905 
-2.973320 3.799506 -0.417572 
-2.967524 4.366747 -0.820163 
-2.990716 4.001701 -0.720123 
-2.927349 3.269837 -0.330100 
-2.969656 3.017369 -0.265667 
-2.926127 3.386841 -0.580413 
-2.988878 3.168322 -0.521606 
-4.182426 7.637508 -0.191090 
-2.996653 4.866975 -0.001142 
-3.037454 5.179977 -0.345670 
-2.996500 4.236516 0.060769 
-2.990060 3.819326 0.107382 
-2.990410 4.407723 -0.237666 
-2.990483 3.993907 -0.162342 
-2.956938 3.305727 0.161817 
-2.970852 3.026292 0.190195 
-2.961442 3.447011 -0.093106 
-2.995595 3.175033 -0.040651 
-2.930837 5.328984 0.583213 
-3.090395 5.028674 0.624746 
-3.018569 5.149431 0.309585 
-3.255615 4.597498 0.654906 
-3.491642 4.471942 0.706213 
-3.038573 4.486227 0.345088 
-3.034307 4.041568 0.383040 
-1.972164 3.637728 -1.625085 
-1.904907 3.148315 -1.404862 
-2.912636 3.372455 -0.786750 
-2.957649 3.126641 -0.710210 
-1.956216 3.580889 -1.097146 
-2.089321 3.430514 -1.044024 
-1.858256 3.598718 -1.327736 
-1.805268 3.126693 -1.143629 
-2.385299 3.355943 -1.039767 
-2.486693 3.173630 -0.976430 
-2.224586 3.276997 -1.229337 
-2.896053 3.207323 -1.007484 
-4.180759 7.668061 -1.502200 
-2.983790 4.861050 -0.881935 
-3.191911 6.166896 -1.535870 
-2.657073 4.546013 -1.093315 
-2.954681 4.165587 -0.741916 
-2.986350 3.823030 -0.650335 
-2.623534 3.875245 -0.909887 
-2.919912 3.896276 -0.920292 
-4.205474 7.754245 -1.165167 
-3.015059 4.971333 -0.658017 
-3.012343 3.526694 0.411088 
-3.013590 3.229578 0.440038 
-2.966915 4.220385 -0.508300 
-2.989646 3.857199 -0.424653 
-2.964326 4.406845 -0.826192 
-2.960040 3.999997 -0.716525 
-2.939390 3.314957 -0.335117 
-2.965180 3.041234 -0.267194 
-2.884682 3.370498 -0.573593 
-2.977982 3.186673 -0.522579 
-4.103814 7.577945 -0.187017 
-3.041781 4.991682 -0.005805 
-3.030127 5.223449 -0.348747 
-3.000412 4.285100 0.059605 
-3.000403 3.869569 0.106456 
-2.983948 4.443347 -0.239798 
-3.050588 4.113298 -0.171938 
-2.962407 3.343698 0.161499 
-2.969186 3.053085 0.190126 
-2.959298 3.477729 -0.094532 
-3.002554 3.212327 -0.042432 
-2.921779 5.372617 0.585290 
-3.094855 5.089084 0.628517 
-3.078154 5.306816 0.312415 
-3.256654 4.645546 0.658040 
-3.506083 4.533895 0.711238 
-3.042823 4.538814 0.346248 
-3.038043 4.086183 0.384347 
-1.936912 3.612725 -1.608858 
-2.139010 3.566546 -1.601901 
-2.948585 3.447503 -0.803126 
-2.860453 3.053637 -0.687045 
-1.938419 3.588376 -1.096576 
-2.071127 3.437042 -1.042914 
-1.839585 3.604067 -1.326396 
-1.844581 3.228275 -1.181091 
-2.380439 3.382962 -1.045175 
-2.470517 3.183796 -0.975906 
-2.220627 3.304814 -1.236399 
-2.889878 3.231087 -1.011013 
-4.164065 7.724082 -1.509882 
-2.994844 4.930457 -0.893390 
-3.155778 6.167987 -1.532160 
-2.639556 4.565213 -1.095111 
-2.962019 4.218332 -0.749936 
-2.941532 3.802836 -0.643397 
-2.644063 3.946194 -0.925368 
-2.867477 3.864627 -0.908163 
-4.153094 7.744317 -1.159984 
-3.022370 5.036250 -0.666737 
-3.005946 3.553111 0.411782 
-2.983330 3.227698 0.438896 
-2.932385 4.213102 -0.504779 
-2.967788 3.866543 -0.423895 
-2.959735 4.445368 -0.831845 
-3.013766 4.111915 -0.738831 
-2.928942 3.334770 -0.336073 
-2.954986 3.059438 -0.267848 
-2.924450 3.450525 -0.588598 
-2.979123 3.217953 -0.526474 
-4.079312 7.618369 -0.188103 
-2.950650 4.895001 -0.001142 
-3.026452 5.273859 -0.352548 
-3.001671 4.330517 0.058552 
-2.985813 3.888403 0.106335 
-2.971739 4.470682 -0.241111 
-3.014527 4.105204 -0.169903 
-2.970204 3.384815 0.161142 
-2.984090 3.097111 0.189967 
-2.937767 3.485502 -0.094013 
-2.996941 3.236640 -0.043210 
-2.909560 5.410997 0.587001 
-3.119534 5.183747 0.635081 
-3.278769 4.724926 0.664150 
-3.533423 4.613422 0.718169 
-3.026888 4.561458 0.346500 
-3.016367 4.097247 0.384209 
-1.913037 3.608729 -1.602677 
-2.112642 3.560739 -1.594293 
-2.927274 3.455349 -0.801529 
-2.946874 3.174412 -0.715527 
-1.931304 3.616134 -1.102844 
-2.051924 3.441832 -1.041249 
-1.832636 3.632951 -1.334435 
-1.838757 3.253311 -1.187663 
-2.383012 3.421118 -1.054370 
-2.514786 3.271548 -1.002088 
-2.208145 3.319993 -1.238325 
-2.339503 3.188941 -1.187999 
-2.893741 3.266515 -1.018574 
-4.119342 7.727977 -1.506590 
-2.994065 4.981555 -0.901026 
-2.619966 4.580975 -1.096009 
-2.956633 4.253365 -0.754281 
-2.964700 3.869741 -0.654119 
-2.672546 4.030490 -0.944291 
-2.956550 4.022522 -0.946639 
-4.109187 7.749809 -1.157544 
-3.029136 5.101346 -0.675457 
-2.986620 3.564159 0.411608 
-3.004738 3.281278 0.441700 
-2.953793 4.287457 -0.514800 
-2.970086 3.907227 -0.428194 
-2.956992 4.487236 -0.838252 
-2.973410 4.097517 -0.732355 
-2.930024 3.368110 -0.339179 
-2.983414 3.117599 -0.274608 
-2.921999 3.480951 -0.592350 
-2.984063 3.253654 -0.531343 
-3.014201 5.052655 -0.007168 
-3.030294 5.338174 -0.357798 
-3.021659 4.404159 0.056558 
-2.929675 3.853287 0.107584 
-2.943025 4.472943 -0.239963 
-3.038855 4.178835 -0.175282 
-2.972466 3.420012 0.160864 
-2.969462 3.111139 0.189967 
-2.941633 3.523937 -0.096086 
-3.003391 3.274145 -0.044991 
-2.886818 5.429947 0.587368 
-3.111520 5.225748 0.637315 
-4.285861 7.530319 0.355552 
-3.278898 4.773295 0.667284 
-3.558878 4.691724 0.724926 
-3.070740 4.676251 0.349527 
-2.982798 4.092105 0.383384 
-1.901931 3.629179 -1.608085 
-2.096785 3.572244 -1.595054 
-2.910958 3.469105 -0.801529 
-2.869006 3.120707 -0.697678 
-1.921317 3.638803 -1.107403 
-2.095880 3.552032 -1.075106 
-1.826286 3.663540 -1.343145 
-1.837402 3.286575 -1.197522 
-2.359282 3.421166 -1.050584 
-2.505235 3.291005 -1.004706 
-2.157414 3.276341 -1.216496 
-2.337969 3.218286 -1.195502 
-2.796679 5.289058 -0.990448 
-3.010112 5.061458 -0.914563 
-2.400872 4.790458 -1.157920 
-2.754187 4.865616 -1.168303 
-2.950983 4.288441 -0.758625 
-2.952442 3.891504 -0.655696 
-2.675844 4.077452 -0.953322 
-2.891199 3.973397 -0.929911 
-4.026996 7.681418 -1.142300 
-3.023238 5.146195 -0.680688 
-3.002746 3.618355 0.413864 
-3.013551 3.321888 0.443570 
-2.947964 4.322683 -0.518320 
-2.987687 3.968541 -0.435780 
-2.964571 4.545681 -0.848426 
-3.010719 4.189482 -0.749984 
-2.925706 3.395486 -0.341329 
-2.971442 3.134492 -0.275044 
-2.904312 3.493159 -0.592009 
-2.988732 3.289473 -0.536211 
-3.016968 5.111439 -0.009033 
-4.116268 7.311998 -0.562522 
-3.019830 4.446558 0.055616 
-2.991429 3.972054 0.104925 
-2.984533 4.583945 -0.249476 
-3.012087 4.183432 -0.174410 
-2.926507 3.398950 0.161320 
-2.982424 3.153996 0.189815 
-2.935098 3.550122 -0.097123 
-2.931163 3.226521 -0.040318 
-3.119498 5.295223 0.641784 
-4.251314 7.552172 0.355586 
-3.305374 4.861460 0.674178 
-3.474138 4.625876 0.715916 
-2.963210 4.557836 0.345542 
-2.948167 4.085124 0.382489 
-1.877265 3.623312 -1.601131 
-2.068663 3.562961 -1.585925 
-2.934384 3.531242 -0.814310 
-2.939453 3.226587 -0.721983 
-1.904149 3.647816 -1.107403 
-2.100658 3.598241 -1.087316 
-1.805714 3.665323 -1.340465 
-1.920909 3.471398 -1.267845 
-2.346361 3.437037 -1.052206 
-2.465096 3.270560 -0.993710 
-2.155259 3.307189 -1.224843 
-2.396655 3.330574 -1.236770 
-2.927577 3.069458 -0.945399 
-2.753657 5.267249 -0.983133 
-3.001322 5.100985 -0.919769 
-2.369721 4.784243 -1.153283 
-2.802265 5.004055 -1.201531 
-2.947271 4.326827 -0.763638 
-2.953186 3.930537 -0.660741 
-2.701973 4.160694 -0.971814 
-2.860926 3.971170 -0.925728 
-4.017356 7.722131 -1.147178 
-3.046227 5.222160 -0.692024 
-2.985050 3.620027 0.413430 
-3.020597 3.350523 0.444920 
-2.976289 4.394476 -0.528611 
-2.995546 4.004810 -0.440080 
-2.975713 4.594659 -0.857471 
-3.043589 4.262737 -0.764374 
-2.884241 3.368281 -0.335595 
-2.964324 3.146689 -0.275480 
-2.934456 3.552639 -0.603263 
-3.001010 3.323616 -0.541729 
-3.050781 5.205172 -0.012548 
-3.002930 5.387845 -0.360513 
-3.005846 4.456022 0.055616 
-3.007886 4.019707 0.103958 
-3.005571 4.648704 -0.254889 
-3.011784 4.210656 -0.176009 
-2.990709 3.496702 0.160169 
-2.998688 3.190886 0.189671 
-2.922673 3.557776 -0.096993 
-3.024725 3.349232 -0.048885 
-3.109949 5.317022 0.642761 
-4.214818 7.542835 0.355143 
-3.297845 4.883420 0.675275 
-3.559079 4.768869 0.730298 
-3.054371 4.732236 0.350485 
-3.027984 4.222223 0.387925 
-1.872537 3.642359 -1.607313 
-2.066797 3.585409 -1.593533 
-2.944341 3.566252 -0.821101 
-2.942567 3.250284 -0.725780 
-1.903131 3.674274 -1.114241 
-2.093239 3.611448 -1.089536 
-1.804807 3.693055 -1.349174 
-1.912755 3.482364 -1.269816 
-2.313068 3.410784 -1.040849 
-2.461809 3.287514 -0.996851 
-2.134672 3.297975 -1.218423 
-2.350515 3.288857 -1.216761 
-2.950154 3.112234 -0.957078 
-2.876177 4.925486 -0.881935 
-2.341087 4.763661 -1.145863 
-2.901085 5.216730 -1.255414 
-2.902952 4.290182 -0.754281 
-2.965807 3.972900 -0.667363 
-2.790741 4.328918 -1.013528 
-2.839263 3.967463 -0.922383 
-2.992691 5.186877 -0.683595 
-2.993065 3.665145 0.415166 
-2.986030 3.343972 0.443466 
-2.966502 4.424965 -0.531320 
-2.937401 3.966474 -0.431734 
-2.969809 4.633511 -0.863123 
-3.006313 4.253020 -0.758978 
-2.909152 3.430534 -0.343240 
-2.920795 3.130272 -0.270901 
-2.899094 3.543443 -0.598147 
-2.993260 3.346501 -0.543677 
-2.999959 5.174646 -0.010683 
-4.181754 7.565119 -0.585510 
-3.027797 4.535190 0.053455 
-2.948153 3.979422 0.105328 
-3.016690 4.715019 -0.259974 
-3.038347 4.289683 -0.181825 
-2.971630 3.507690 0.160208 
-3.002818 3.225362 0.189564 
-2.942149 3.616611 -0.100751 
-2.998189 3.351603 -0.047995 
-3.104988 5.366072 0.645554 
-4.145190 7.501457 0.353949 
-3.333135 4.987018 0.683579 
-3.571111 4.831907 0.735323 
-2.978611 4.662082 0.347963 
-3.051172 4.296531 0.390472 
-1.850400 3.641244 -1.602677 
-2.041542 3.580699 -1.586686 
-2.947215 3.604472 -0.827492 
-2.970766 3.312099 -0.738312 
-1.902192 3.715727 -1.125068 
-2.087790 3.641203 -1.096197 
-1.797088 3.721945 -1.357213 
-1.910922 3.517802 -1.280332 
-2.306537 3.436094 -1.045716 
-2.441652 3.292906 -0.994757 
-2.132252 3.328819 -1.226769 
-2.305094 3.258217 -1.199879 
-2.936791 3.127508 -0.957564 
-2.547630 4.964313 -0.915460 
-2.856906 4.945789 -0.883324 
-2.171391 4.467655 -1.064708 
-3.450114 6.262735 -1.527524 
-2.949139 4.404087 -0.774667 
-2.965970 4.012144 -0.672409 
-2.846395 4.462609 -1.044922 
-2.870659 4.050748 -0.940784 
-4.043236 7.955533 -1.181021 
-2.999839 5.255780 -0.692896 
-3.009455 3.721341 0.417508 
-3.016856 3.410098 0.447102 
-2.972806 4.480307 -0.538090 
-2.990754 4.077488 -0.447161 
-2.969871 4.682390 -0.871037 
-2.993054 4.276777 -0.761136 
-2.947492 3.509902 -0.353513 
-2.982076 3.225298 -0.283112 
-2.934107 3.621668 -0.612471 
-2.980091 3.363508 -0.544326 
-3.037654 5.295955 -0.015130 
-4.162388 7.614403 -0.588587 
-3.030466 4.586217 0.052236 
-3.013942 4.107301 0.102467 
-3.024076 4.776474 -0.264567 
-3.013486 4.297443 -0.181244 
-2.967836 3.537047 0.160010 
-2.993043 3.245325 0.189534 
-2.993026 3.377590 -0.048885 
-4.307606 7.505322 0.817325 
-4.112687 7.526163 0.354051 
-3.309597 5.002670 0.683579 
-3.575525 4.885547 0.739308 
-3.052058 4.828608 0.352503 
-2.997318 4.263608 0.388476 
-1.832403 3.648269 -1.601904 
-2.010865 3.566199 -1.575274 
-2.927747 3.615261 -0.826693 
-2.947248 3.317299 -0.736034 
-1.888935 3.733230 -1.127917 
-2.071566 3.652667 -1.096752 
-1.794741 3.762784 -1.369941 
-1.925985 3.584806 -1.303335 
-2.270265 3.416328 -1.035440 
-2.430716 3.310570 -0.996851 
-2.141631 3.378991 -1.242819 
-2.274315 3.247359 -1.191126 
-2.940639 3.161086 -0.964376 
-2.523327 4.974505 -0.915094 
-2.942895 5.148530 -0.921852 
-2.159477 4.497177 -1.069809 
-3.454351 6.340414 -1.543689 
-2.955387 4.459159 -0.783021 
-2.969352 4.056240 -0.678400 
-2.750854 4.356684 -1.013958 
-2.888884 4.116870 -0.954586 
-3.049532 5.400498 -0.714986 
-2.962111 3.697890 0.415426 
-3.014002 3.439222 0.448141 
-2.962458 4.510881 -0.540798 
-2.977377 4.099532 -0.448425 
-2.989228 4.763072 -0.886111 
-2.997694 4.326288 -0.769051 
-2.933441 3.526820 -0.353991 
-2.969547 3.242231 -0.283548 
-2.924356 3.644718 -0.614517 
-2.973380 3.387844 -0.546598 
-3.051417 5.377845 -0.017928 
-4.110270 7.604194 -0.585510 
-3.016425 4.612195 0.051848 
-3.004022 4.134352 0.102144 
-3.037251 4.848267 -0.270144 
-2.979454 4.292001 -0.179499 
-2.956213 3.557174 0.159930 
-2.964141 3.244707 0.189610 
-2.910405 3.647312 -0.101010 
-3.050003 3.473780 -0.055005 
-4.249416 7.485701 0.814113 
-3.330472 5.086794 0.690003 
-3.587745 4.950593 0.744506 
-3.047163 4.871835 0.353361 
-3.020893 4.339810 0.391091 
-1.816001 3.658521 -1.602677 
-1.981282 3.553100 -1.564623 
-2.963034 3.695047 -0.843868 
-2.956395 3.359014 -0.743249 
-1.927210 3.855607 -1.165526 
-2.060983 3.674078 -1.100637 
-1.796805 3.813942 -1.386689 
-1.944942 3.660342 -1.329624 
-2.266716 3.446373 -1.041930 
-2.336091 3.214759 -0.960721 
-1.985247 3.161875 -1.152296 
-2.250245 3.245607 -1.186123 
-2.954819 3.206118 -0.975082 
-2.498111 4.982817 -0.914362 
-3.025080 5.348767 -0.959686 
-2.081357 4.385722 -1.037811 
-3.431879 6.370321 -1.547282 
-2.962254 4.516041 -0.791710 
-2.956041 4.078153 -0.679977 
-2.674854 4.279870 -0.990736 
-2.887438 4.156044 -0.961277 
-2.768425 5.558925 -0.762408 
-3.029881 5.425150 -0.716730 
-2.998914 3.780982 0.419244 
-2.947684 3.396356 0.444193 
-2.991549 4.603122 -0.553527 
-2.963858 4.121541 -0.449690 
-2.958522 4.763719 -0.883096 
-2.998570 4.371086 -0.775887 
-2.881681 3.497492 -0.347302 
-2.981126 3.285478 -0.287910 
-2.931497 3.689452 -0.621338 
-2.989966 3.438864 -0.554712 
-4.082475 7.256238 -0.094829 
-3.059364 4.727364 0.048524 
-2.999794 4.169486 0.101620 
-3.006030 4.848934 -0.268832 
-2.999022 4.363334 -0.184588 
-2.976024 3.616051 0.159354 
-2.974481 3.286664 0.189466 
-2.954621 3.739623 -0.107488 
-2.995351 3.444632 -0.051778 
-4.219004 7.514326 0.814811 
-3.337701 5.151090 0.694546 
-3.590082 5.002950 0.748318 
-3.047151 4.923646 0.354470 
-2.994697 4.345797 0.390747 
-1.802749 3.675345 -1.606540 
-1.943735 3.525276 -1.547126 
-2.939537 3.701262 -0.841871 
-2.904162 3.331676 -0.732616 
-1.937534 3.923259 -1.184901 
-2.048359 3.692121 -1.103412 
-1.784304 3.834361 -1.391379 
-1.938339 3.689467 -1.337510 
-2.253571 3.461877 -1.043553 
-2.290202 3.183627 -0.946583 
-1.942649 3.125952 -1.134320 
-2.252291 3.281122 -1.196128 
-2.938361 3.218581 -0.974595 
-2.403696 4.849728 -0.884367 
-3.015342 5.390402 -0.965240 
-2.015766 4.298356 -1.012305 
-3.393519 6.370971 -1.543240 
-2.951597 4.546540 -0.795052 
-2.982023 4.154381 -0.692275 
-2.362261 3.814151 -0.867312 
-2.863355 4.163182 -0.959604 
-2.725756 5.538144 -0.756615 
-4.212087 7.604687 -1.080925 
-2.990870 3.807695 0.419938 
-3.007670 3.497616 0.450218 
-2.978337 4.630542 -0.555693 
-2.980330 4.185380 -0.457529 
-2.988092 4.863195 -0.902316 
-2.989071 4.401390 -0.779484 
-2.964895 3.634682 -0.366414 
-2.952234 3.284782 -0.285729 
-2.934650 3.729667 -0.627136 
-2.972432 3.451428 -0.554388 
-4.192873 7.533433 -0.105446 
-4.217168 7.978419 -0.620083 
-3.028489 4.728220 0.048967 
-2.956745 4.151121 0.102426 
-3.016251 4.917567 -0.274081 
-3.042848 4.471106 -0.192875 
-2.994089 3.673635 0.158798 
-2.956272 3.297682 0.189481 
-2.979711 3.808753 -0.112023 
-2.994827 3.476776 -0.053113 
-4.135830 7.448799 0.807968 
-3.351882 5.227347 0.700187 
-3.592005 5.055439 0.752130 
-3.070557 5.014889 0.356740 
-3.058140 4.481637 0.395839 
-1.785410 3.683800 -1.606540 
-1.921726 3.524687 -1.542561 
-2.940108 3.738278 -0.847863 
-2.959490 3.426652 -0.753502 
-2.267364 3.177901 -1.412723 
-1.949755 3.996276 -1.205985 
-2.031872 3.703412 -1.103967 
-1.854732 4.038472 -1.467750 
-1.925336 3.706914 -1.340796 
-2.244461 3.483834 -1.047339 
-2.387063 3.349295 -0.998422 
-1.930839 3.139933 -1.136246 
-2.240038 3.296392 -1.198003 
-2.965073 3.278185 -0.990166 
-2.411645 4.924721 -0.897536 
-4.210978 7.589986 -1.406407 
-1.986599 4.288340 -1.007204 
-3.356145 6.373123 -1.539648 
-2.955530 4.600336 -0.803073 
-2.984306 4.198864 -0.698267 
-2.534317 4.139435 -0.948161 
-2.834832 4.163742 -0.956259 
-2.699628 5.550928 -0.756615 
-4.219214 7.702419 -1.094004 
-2.965583 3.812245 0.419417 
-3.010710 3.534448 0.451776 
-2.965989 4.659615 -0.558131 
-2.982449 4.230076 -0.462334 
-2.971218 4.887320 -0.904577 
-3.004781 4.469129 -0.791357 
-2.944016 3.643959 -0.365697 
-2.983296 3.350355 -0.293361 
-2.933881 3.765310 -0.631910 
-2.989657 3.504243 -0.562827 
-4.167016 7.570589 -0.106163 
-3.045488 4.805099 0.046917 
-3.006793 4.262702 0.100009 
-3.026917 4.988111 -0.279494 
-3.037459 4.508480 -0.194911 
-2.982982 3.695518 0.158699 
-2.991495 3.368107 0.189192 
-2.954446 3.813246 -0.111245 
-3.021465 3.540738 -0.056785 
-4.119995 7.503124 0.810761 
-3.359049 5.293723 0.704887 
-3.607352 5.127554 0.758021 
-3.083913 5.091028 0.358556 
-3.078677 4.557084 0.398385 
-1.779822 3.717205 -1.618130 
-1.902430 3.528837 -1.540279 
-2.941591 3.776933 -0.854253 
-2.951019 3.449469 -0.755781 
-2.242597 3.174918 -1.406182 
-1.948993 4.043519 -1.218521 
-2.025517 3.733144 -1.110627 
-1.863341 4.109113 -1.491867 
-1.913086 3.725996 -1.344740 
-2.209569 3.465032 -1.037604 
-2.406061 3.409179 -1.014655 
-1.926726 3.166873 -1.143308 
-2.215915 3.294357 -1.193001 
-2.946986 3.289247 -0.989193 
-2.413004 4.987476 -0.908144 
-4.217078 7.685600 -1.421679 
-1.962371 4.288786 -1.004885 
-3.322450 6.381966 -1.537852 
-2.965321 4.664283 -0.813099 
-2.969065 4.219318 -0.699528 
-2.668248 4.407759 -1.013958 
-2.810774 4.170589 -0.954586 
-2.671743 5.560017 -0.756005 
-4.170552 7.699634 -1.090226 
-2.975435 3.862734 0.421413 
-3.001799 3.557712 0.452399 
-2.959722 4.698764 -0.562193 
-2.992364 4.975528 -0.921158 
-3.013330 4.527317 -0.801070 
-2.956379 3.695167 -0.371431 
-2.988654 3.388109 -0.296850 
-2.935232 3.804162 -0.637367 
-2.996191 3.545295 -0.568669 
-4.097666 7.528800 -0.103652 
-3.071319 4.897527 0.044368 
-3.010886 4.311131 0.099163 
-3.031893 5.050297 -0.284087 
-3.016180 4.522744 -0.194911 
-3.000261 3.753464 0.158143 
-2.983569 3.391130 0.189147 
-2.934031 3.823946 -0.110986 
-2.990473 3.538240 -0.055561 
-3.335119 5.311186 0.705044 
-3.618660 5.195034 0.763393 
-3.051726 5.091749 0.358153 
-3.051573 4.563260 0.398041 
-1.774738 3.752311 -1.630493 
-1.885779 3.537763 -1.540279 
-2.907123 3.768938 -0.848661 
-2.904059 3.427558 -0.746667 
-2.238391 3.200649 -1.413449 
-1.947830 4.090841 -1.231058 
-2.022603 3.769649 -1.119508 
-1.875887 4.190269 -1.520004 
-1.902429 3.748402 -1.349998 
-2.207458 3.498293 -1.045175 
-2.373238 3.396849 -1.006800 
-1.894403 3.146583 -1.131752 
-2.199303 3.303188 -1.192376 
-2.880807 3.568881 -1.076542 
-2.963858 3.339180 -1.001358 
-2.454968 5.137473 -0.936676 
-4.178925 7.701931 -1.420985 
-1.944512 4.303318 -1.006277 
-3.285154 6.383714 -1.534260 
-2.920380 4.641378 -0.805746 
-2.958246 4.246181 -0.702051 
-2.661379 4.443814 -1.019979 
-2.933281 4.394562 -1.008954 
-2.651733 5.563020 -0.755091 
-4.132210 7.686597 -1.085866 
-3.007903 3.931012 0.424623 
-3.009984 3.589976 0.453958 
-2.997095 4.792284 -0.575734 
-2.991264 4.313482 -0.471691 
-3.001705 5.027176 -0.930579 
-2.993629 4.528582 -0.799272 
-2.959480 3.723171 -0.374298 
-2.995143 3.416819 -0.299685 
-2.889933 3.769390 -0.627818 
-2.981206 3.550178 -0.567695 
-4.079726 7.552169 -0.104083 
-1.750360 3.858921 -0.221153 
-3.047524 4.893538 0.044811 
-3.006510 4.333667 0.098840 
-3.039311 5.099280 -0.287860 
-3.070742 4.634975 -0.203925 
-2.935337 3.695240 0.158997 
-2.994101 3.424456 0.189025 
-2.961648 3.885738 -0.115262 
-2.959951 3.524788 -0.053892 
-3.534119 7.846521 0.283595 
-3.343569 5.362347 0.708804 
-3.637675 5.257026 0.768764 
-3.098639 5.208113 0.361280 
-3.076204 4.630916 0.400450 
-1.779174 3.793041 -1.646720 
-1.871154 3.537152 -1.537236 
-2.946159 3.845217 -0.865837 
-2.967129 3.523363 -0.768693 
-1.947100 4.123013 -1.239605 
-2.007096 3.769223 -1.117288 
-1.861959 4.194415 -1.519334 
-1.896663 3.766133 -1.354598 
-2.176214 3.472451 -1.034359 
-2.332572 3.361660 -0.992662 
-1.886429 3.155785 -1.133036 
-2.197381 3.322703 -1.197378 
-2.885211 3.597631 -1.083095 
-2.957228 3.352817 -1.002818 
-2.476349 5.225287 -0.953137 
-4.140623 7.689050 -1.415778 
-1.932555 4.312965 -1.007204 
-3.262405 6.388805 -1.532913 
-2.978371 4.767935 -0.829140 
-2.914327 4.211758 -0.693537 
-2.664233 4.480778 -1.027290 
-2.971717 4.481744 -1.029029 
-2.609632 5.541409 -0.749298 
-4.080065 7.676327 -1.080925 
-3.004924 3.965928 0.425751 
-3.017439 3.633179 0.455931 
-3.015880 4.873946 -0.586566 
-2.888344 4.208538 -0.453230 
-2.964101 5.017527 -0.925303 
-3.030847 4.631258 -0.818699 
-2.934584 3.727674 -0.372864 
-2.986880 3.439857 -0.300993 
-2.944305 3.879108 -0.648621 
-2.989852 3.594391 -0.574187 
-1.750612 3.909016 -0.225697 
-3.072324 4.986354 0.042263 
-3.049904 4.439777 0.096584 
-3.018263 5.118710 -0.288352 
-3.042256 4.639416 -0.203053 
-2.986651 3.797433 0.157885 
-2.997699 3.461092 0.188911 
-2.981507 3.950831 -0.119408 
-2.966449 3.566202 -0.055895 
-3.523741 7.923471 0.284181 
-3.326582 5.391653 0.710058 
-3.632117 5.301976 0.771710 
-3.058960 5.196746 0.360523 
-3.065406 4.662011 0.401138 
-1.806421 3.900418 -1.692308 
-1.850126 3.537763 -1.533432 
-2.952705 3.891976 -0.874225 
-2.927700 3.510292 -0.761857 
-1.946863 4.173949 -1.253281 
-1.998366 3.795586 -1.122838 
-1.824252 4.161617 -1.503256 
-1.888268 3.793573 -1.361827 
-2.155809 3.476096 -1.032195 
-2.318911 3.375782 -0.993710 
-1.887731 3.192471 -1.143950 
-2.158581 3.298202 -1.183622 
-2.590944 3.258009 -0.966150 
-2.964522 3.392878 -1.011577 
-2.387296 5.097707 -0.924605 
-4.098758 7.698062 -1.413696 
-1.914541 4.327374 -1.008595 
-2.394686 4.759456 -1.107684 
-2.937347 4.751640 -0.823125 
-2.948417 4.303381 -0.708673 
-2.653889 4.511856 -1.032020 
-2.966780 4.520147 -1.035302 
-2.583490 5.553646 -0.749298 
-3.010017 4.012134 0.427486 
-3.006671 3.655036 0.456451 
-2.999041 4.898271 -0.588191 
-3.003271 4.418343 -0.483577 
-2.958126 5.062043 -0.932086 
-3.018685 4.660306 -0.821937 
-2.958204 3.794932 -0.380987 
-2.971942 3.455394 -0.301211 
-2.938924 3.910338 -0.652372 
-2.984251 3.622085 -0.577108 
-1.721852 3.893496 -0.223129 
-3.030196 4.969967 0.043260 
-3.019889 4.440916 0.096906 
-3.022018 5.181208 -0.292945 
-3.102393 4.778808 -0.213957 
-2.987029 3.835231 0.157587 
-3.010194 3.508411 0.188744 
-2.920150 3.907058 -0.114743 
-3.002025 3.643038 -0.060457 
-3.495946 7.961991 0.284394 
-3.621716 5.340411 0.773962 
-3.098350 5.321958 0.363752 
-3.053286 4.691436 0.401757 
-1.797107 3.929073 -1.701581 
-1.845475 3.569368 -1.544083 
-2.943681 3.918431 -0.877420 
-2.967789 3.591853 -0.778946 
-1.925587 4.179586 -1.252142 
-2.002894 3.847436 -1.136714 
-1.794282 4.145895 -1.493877 
-1.872902 3.807499 -1.363799 
-2.142394 3.491159 -1.033818 
-2.312837 3.400975 -0.998422 
-1.885895 3.224314 -1.152938 
-2.145101 3.311513 -1.184873 
-2.498342 3.170867 -0.933385 
-2.935721 3.392215 -1.006711 
-2.352623 5.085651 -0.919849 
-2.730095 5.204485 -0.912480 
-1.897204 4.343497 -1.010450 
-2.394137 4.814209 -1.118910 
-2.991505 4.891947 -0.848189 
-2.973891 4.384014 -0.721602 
-2.633572 4.526005 -1.032451 
-2.979793 4.586396 -1.048685 
-2.549932 5.549562 -0.746554 
-3.018291 4.063306 0.429482 
-3.028786 3.716949 0.459671 
-2.996306 4.946339 -0.593608 
-2.991341 4.445571 -0.485600 
-2.792798 4.828725 -0.877444 
-3.012733 4.699248 -0.827333 
-2.902936 3.759901 -0.373581 
-2.958222 3.472373 -0.301647 
-2.926305 3.932080 -0.654078 
-2.992272 3.666549 -0.583600 
-1.700344 3.894252 -0.222338 
-3.079520 5.106060 0.039326 
-3.023670 4.491471 0.096020 
-3.044035 5.276739 -0.300654 
-3.074409 4.785008 -0.213230 
-2.989542 3.876296 0.157249 
-3.005361 3.536207 0.188676 
-2.986573 4.036735 -0.124072 
-3.020416 3.700266 -0.063572 
-3.448909 7.956329 0.284181 
-3.603214 5.367318 0.775002 
-3.083141 5.353868 0.364256 
-3.055128 4.742630 0.403271 
-1.782318 3.945927 -1.705444 
-1.825225 3.571458 -1.541039 
-2.910087 3.911738 -0.872228 
-2.954586 3.610336 -0.780085 
-2.045533 3.366914 -1.473289 
-1.896461 4.167621 -1.245304 
-2.067458 4.015229 -1.188331 
-1.775455 4.156042 -1.494547 
-1.854939 3.816282 -1.363799 
-2.118008 3.487999 -1.029491 
-2.310929 3.432564 -1.005229 
-1.876303 3.243042 -1.156790 
-2.125329 3.315214 -1.182372 
-2.481011 3.179538 -0.932377 
-2.946395 3.436787 -1.016929 
-2.327014 5.093097 -0.919118 
-2.706454 5.219037 -0.912827 
-1.885841 4.373877 -1.016015 
-2.359272 4.801008 -1.112623 
-2.994760 4.949975 -0.856878 
-2.970943 4.424127 -0.726647 
-2.621874 4.555342 -1.036751 
-2.968803 4.616786 -1.052867 
-2.519707 5.552499 -0.745029 
-3.006164 4.087179 0.430002 
-2.996083 3.712612 0.458424 
-3.008350 5.020052 -0.603086 
-2.989192 4.487598 -0.489899 
-2.795165 4.886277 -0.887242 
-3.003296 4.733268 -0.831650 
-2.960624 3.873332 -0.388632 
-3.002492 3.557342 -0.311896 
-2.937921 3.987235 -0.662945 
-2.978708 3.685193 -0.584573 
-1.669549 3.872902 -0.219178 
-2.988306 5.006911 0.042983 
-3.062779 4.595237 0.093844 
-3.036784 5.322263 -0.303607 
-3.075542 4.836366 -0.216429 
-2.989324 3.914278 0.156951 
-2.995147 3.557945 0.188638 
-2.961662 4.042684 -0.123424 
-2.992834 3.702090 -0.062682 
-3.588235 7.937450 0.744130 
-3.405127 7.957766 0.284039 
-3.583428 5.392513 0.775868 
-4.284725 7.543396 0.427259 
-3.069543 4.814109 0.405611 
-1.808375 3.580020 -1.541039 
-2.918160 3.961840 -0.881415 
-2.974887 3.669775 -0.791478 
-2.128934 3.544189 -1.551565 
-1.863611 4.146708 -1.235616 
-2.039700 4.007853 -1.182781 
-1.750073 4.150437 -1.489188 
-1.847701 3.847051 -1.372343 
-2.115283 3.521136 -1.037063 
-2.291486 3.438617 -1.003659 
-1.861929 3.253498 -1.157432 
-2.120994 3.342764 -1.189250 
-2.456612 3.178881 -0.928344 
-2.920054 3.438861 -1.013036 
-2.285038 3.086685 -1.115968 
-2.285379 5.064494 -0.911070 
-2.663705 5.196757 -0.905885 
-1.870473 4.395275 -1.019261 
-2.322864 4.784088 -1.105439 
-2.994519 5.003051 -0.864565 
-2.977595 4.479064 -0.734531 
-2.793882 4.911486 -1.123621 
-2.879311 4.525445 -1.026101 
-2.484706 5.544432 -0.741675 
-3.023078 4.151556 0.432692 
-2.997387 3.749990 0.459982 
-3.006726 5.071771 -0.609044 
-2.980111 4.519796 -0.492681 
-2.979326 5.269609 -0.968641 
-3.015737 4.802190 -0.843523 
-2.953048 3.901547 -0.390782 
-2.990829 3.577524 -0.312769 
-2.919099 4.001035 -0.662945 
-2.989869 3.734468 -0.592039 
-1.645904 3.867874 -0.217795 
-3.012093 5.102062 0.040379 
-3.041090 4.609619 0.093844 
-2.984445 5.287793 -0.299014 
-3.056998 4.857539 -0.217011 
-2.952877 3.904299 0.157249 
-3.008002 3.607184 0.188463 
-2.982136 4.111729 -0.127829 
-3.011796 3.761159 -0.065909 
-3.562915 7.981650 0.745962 
-3.359864 7.955276 0.283861 
-4.236468 7.540804 0.426603 
-3.110209 4.927968 0.409671 
-1.709850 3.881300 -1.668355 
-1.793995 3.593450 -1.543322 
-2.923532 4.008926 -0.889803 
-2.964987 3.692900 -0.793756 
-2.121589 3.570195 -1.559020 
-1.937034 3.441292 -1.723047 
-1.850190 4.169498 -1.240175 
-2.034764 4.044805 -1.191661 
-1.736207 4.172590 -1.494547 
-1.830372 3.857417 -1.373000 
-2.080174 3.499498 -1.026787 
-2.291351 3.473445 -1.011513 
-1.871460 3.306916 -1.174766 
-2.104198 3.351120 -1.188624 
-2.436939 3.184244 -0.926328 
-2.956618 3.514634 -1.033473 
-2.260427 3.083525 -1.110477 
-2.120532 4.754852 -0.845958 
-2.522449 4.981357 -0.860762 
-1.853458 4.413030 -1.021580 
-2.176817 4.540788 -1.040330 
-2.995838 5.059636 -0.872919 
-2.937864 4.465087 -0.729170 
-2.965438 5.274466 -1.211781 
-2.847452 4.522464 -1.021919 
-2.457759 5.554268 -0.741371 
-2.795758 5.589283 -0.721962 
-3.027848 4.199916 0.434514 
-2.999652 3.789021 0.461644 
-3.004681 5.123585 -0.615002 
-2.990454 4.581820 -0.500015 
-3.022951 5.407320 -0.995773 
-3.017134 4.854671 -0.851797 
-2.939360 3.921800 -0.391738 
-2.915220 3.521466 -0.302738 
-2.934580 4.062852 -0.673176 
-2.988286 3.768531 -0.596258 
-3.499021 7.949768 -0.190094 
-1.618548 3.853511 -0.215424 
-3.031447 4.642258 0.093401 
-4.117348 7.397071 -0.496017 
-3.080807 4.946180 -0.223408 
-2.971346 3.967990 0.156634 
-2.994817 3.625923 0.188440 
-2.953481 4.112720 -0.126793 
-3.032765 3.823605 -0.069358 
-3.550853 8.056883 0.749872 
-3.313172 7.948842 0.283648 
-4.326187 7.414530 0.886793 
-4.322147 6.628485 0.900970 
-4.193160 7.546679 0.426199 
