ply
format ascii 1.0
element vertex 1256
property float x
property float y
property float z
property uchar red
property uchar green
property uchar blue
end_header
-2.573118 2.321730 -0.928643 25 33 35
-2.615561 2.360854 0.061502 29 28 24
-2.568760 2.319425 -0.799026 62 49 43
-2.601586 2.349065 0.183699 23 16 10
-2.545234 2.298989 -0.666687 102 75 66
-2.607730 2.356265 0.307485 14 13 11
-2.586520 2.337921 -0.552214 33 26 18
-2.589997 2.341885 0.428736 16 14 15
-2.602838 2.354321 -0.430930 24 30 30
-2.387931 2.159933 0.509976 81 84 75
-2.628245 2.378136 -0.310100 23 26 19
-3.915398 3.544044 1.026552 62 64 51
-2.593862 2.348673 -0.183385 37 24 18
-3.896778 3.529666 1.213836 159 147 107
-2.615469 2.369900 -0.061607 37 24 18
-3.945427 3.574986 1.426611 174 151 117
-2.564998 2.330698 -0.928643 28 36 38
-2.608784 2.371315 0.061537 33 29 26
-2.573625 2.340177 -0.803075 17 27 26
-2.600346 2.365304 0.184223 32 25 19
-2.540098 2.310501 -0.667450 40 28 14
-2.608331 2.373398 0.308531 14 13 11
-2.588569 2.356243 -0.554404 33 22 16
-2.599420 2.366949 0.431661 13 11 12
-2.600474 2.368740 -0.431905 23 29 27
-2.390219 2.177984 0.512166 82 88 78
-2.631709 2.398031 -0.311495 23 30 23
-3.921865 3.574883 1.031513 62 63 49
-2.588600 2.360404 -0.183595 51 41 32
-3.907469 3.564260 1.221034 171 153 115
-2.607181 2.379015 -0.061607 36 17 10
-3.950847 3.606354 1.433340 159 133 98
-2.557255 2.339190 -0.928643 25 33 35
-2.618609 2.396152 0.061956 18 14 11
-2.596037 2.376330 -0.812523 24 22 23
-2.600269 2.380204 0.184746 31 24 18
-2.525183 2.312283 -0.665542 62 50 38
-2.597507 2.379343 0.308183 14 13 11
-2.577829 2.362145 -0.553778 76 57 50
-2.631066 2.411773 0.438242 14 13 11
-2.607236 2.390766 -0.434342 28 30 27
-2.398996 2.200587 0.515608 81 93 81
-2.606123 2.390584 -0.309403 17 26 23
-3.894077 3.573268 1.027316 54 52 39
-2.567516 2.356820 -0.182652 49 46 37
-3.907111 3.587742 1.224634 217 198 165
-2.590441 2.379531 -0.061398 63 43 32
-3.945188 3.623976 1.435410 179 149 111
-2.560441 2.358574 -0.932784 23 31 33
-2.617582 2.412054 0.062131 27 23 20
-2.574830 2.373490 -0.808474 26 24 25
-2.613972 2.409571 0.186316 30 25 21
-2.540189 2.342377 -0.671648 49 39 30
-2.633120 2.428923 0.313412 14 13 11
-2.556502 2.359072 -0.550962 65 38 27
-2.612421 2.411517 0.436536 13 12 10
-2.590124 2.391773 -0.432880 61 47 34
-2.397104 2.214309 0.516859 80 87 79
-2.600690 2.402370 -0.309752 22 24 23
-3.884464 3.589504 1.028079 63 60 43
-2.584206 2.388816 -0.184432 25 28 19
-3.918887 3.623850 1.232282 146 131 108
-2.590927 2.396706 -0.061607 70 53 45
-3.942441 3.646908 1.439034 219 187 146
-2.567772 2.381949 -0.938478 31 39 41
-2.588625 2.402133 0.061642 59 41 31
-2.569386 2.385115 -0.809374 19 25 25
-2.616832 2.430008 0.187153 14 13 11
-2.531997 2.351230 -0.671648 33 28 24
-2.646522 2.458439 0.316027 13 12 10
-2.554040 2.373360 -0.552214 127 104 96
-2.598172 2.415215 0.435561 14 13 11
-2.584667 2.403503 -0.433367 98 95 88
-2.447611 2.276053 0.529374 86 93 85
-2.603959 2.422290 -0.311146 48 48 46
-3.915027 3.643165 1.039527 47 43 31
-2.558309 2.381491 -0.183176 26 25 21
-3.916196 3.646804 1.235431 110 98 74
-2.611809 2.432996 -0.062305 39 28 26
-3.953075 3.683723 1.447834 206 182 138
-2.586265 2.415954 -0.948313 25 35 36
-2.574380 2.405693 0.061502 61 47 38
-2.610218 2.440037 0.187258 17 16 14
-2.542415 2.377486 -0.676609 23 25 24
-2.620464 2.451329 0.313935 15 14 12
-2.564490 2.399808 -0.556281 46 35 31
-2.591175 2.425627 0.435805 13 12 10
-2.600894 2.435577 -0.437511 39 48 47
-2.460877 2.305266 0.534067 85 92 84
-2.630385 2.464055 -0.315329 33 33 31
-3.920910 3.674260 1.044488 67 59 48
-2.608266 2.445045 -0.187363 45 42 37
-3.903443 3.660452 1.235431 109 86 52
-2.610593 2.448939 -0.062480 68 50 46
-3.959914 3.716007 1.455081 213 199 162
-2.588647 2.436008 -0.952454 25 37 37
-2.613595 2.460345 0.062654 40 32 19
-2.601907 2.450199 -0.825120 21 25 28
-2.624522 2.471495 0.188933 15 15 15
-2.628862 2.477314 0.316027 14 13 11
-2.591612 2.443066 -0.564103 24 20 19
-2.585155 2.437831 0.436292 15 14 12
-2.602057 2.454628 -0.439217 23 32 31
-2.477243 2.336886 0.539386 91 94 87
-2.612642 2.465475 -0.314284 21 21 19
-3.925976 3.706126 1.049449 108 96 80
-2.589122 2.444989 -0.186630 23 22 20
-3.909833 3.693469 1.241730 147 121 88
-2.610320 2.466731 -0.062689 46 40 28
-3.961710 3.745094 1.460775 129 119 84
-2.588542 2.453002 -0.955560 26 38 38
-2.600637 2.465326 0.062549 30 20 8
-2.615963 2.480722 -0.832319 22 27 30
-2.618777 2.483390 0.189142 13 14 16
-2.569492 2.437505 -0.688439 23 28 24
-2.640432 2.505676 0.318467 14 13 11
-2.587366 2.456177 -0.565041 28 30 29
-2.585267 2.455042 0.437755 14 13 11
-2.610744 2.480103 -0.442142 23 28 22
-2.494850 2.370008 0.545018 86 87 81
-2.598243 2.469090 -0.313586 29 28 26
-3.922975 3.729276 1.052121 136 125 105
-2.583466 2.456765 -0.186839 30 29 27
-3.915272 3.724555 1.247579 183 154 122
-2.598796 2.473071 -0.062619 54 40 27
-3.955609 3.765560 1.463363 91 75 41
-2.577598 2.458906 -0.954525 24 36 36
-2.604021 2.484981 0.062829 47 30 20
-2.624638 2.505530 -0.837718 18 26 28
-2.619196 2.500335 0.189770 10 14 15
-2.603990 2.486688 -0.699887 30 35 31
-2.610498 2.493775 0.315852 14 13 11
-2.593488 2.478391 -0.568170 16 21 25
-2.578546 2.464973 0.437998 14 12 13
-2.605375 2.491491 -0.442629 23 22 17
-2.528379 2.417860 0.554091 101 102 96
-2.602998 2.490088 -0.315155 28 23 19
-3.920516 3.751766 1.054792 133 126 97
-2.622916 2.510896 -0.190294 23 23 21
-3.919788 3.753692 1.252977 181 154 124
-2.594913 2.485825 -0.062724 97 68 60
-3.954920 3.788659 1.467504 167 142 102
-2.582930 2.481272 -0.959701 25 37 37
-2.621284 2.518996 0.063457 61 48 39
-2.604637 2.503873 -0.834118 20 28 30
-2.634929 2.532993 0.191550 14 13 11
-2.612275 2.512093 -0.704467 20 26 24
-2.634802 2.534641 0.319862 17 16 14
-2.611865 2.513454 -0.574115 26 17 8
-2.572786 2.476712 0.438486 14 12 13
-2.616680 2.519847 -0.446042 63 48 43
-2.544112 2.449965 0.559410 100 101 95
-2.608639 2.512981 -0.316898 57 44 36
-3.927187 3.784501 1.060135 118 108 83
-3.916481 3.776821 1.256127 165 142 110
-2.593416 2.501810 -0.062898 49 40 35
-3.954909 3.816544 1.472680 207 184 143
-2.596469 2.511764 -0.967983 27 39 39
-2.625408 2.540646 0.063771 48 41 33
-2.612683 2.529214 -0.839517 21 26 29
-2.622758 2.539855 0.191340 14 13 11
-2.600670 2.518464 -0.703704 20 26 24
-2.623076 2.541050 0.319513 18 17 15
-2.594564 2.514308 -0.572237 55 39 26
-2.591206 2.511930 0.443117 14 12 13
-2.612144 2.533112 -0.446773 48 33 28
-2.556816 2.479459 0.564103 91 94 87
-2.615582 2.537332 -0.318816 70 59 57
-3.932269 3.815961 1.065096 136 120 95
-2.633984 2.556969 -0.192387 33 24 17
-3.914458 3.801330 1.259726 113 91 54
-2.573193 2.499701 -0.062619 22 28 24
-3.964402 3.851176 1.480963 223 200 159
-2.595988 2.528900 -0.971089 25 37 37
-2.602202 2.535839 0.063422 23 25 22
-2.620583 2.554642 -0.844916 23 28 31
-2.636755 2.571305 0.193015 14 13 11
-2.594674 2.530268 -0.704467 21 30 29
-2.619895 2.555756 0.320210 12 11 9
-2.592841 2.530247 -0.573802 117 100 84
-2.596627 2.534827 0.445554 13 11 12
-2.607546 2.546375 -0.447504 16 26 17
-2.567494 2.508138 0.568483 96 101 94
-2.602433 2.542270 -0.318293 40 28 30
-3.932966 3.843385 1.068912 188 174 139
-2.619330 2.560563 -0.191968 72 63 54
-3.931817 3.844946 1.269624 130 112 74
-2.568740 2.512862 -0.062724 30 30 28
-3.969590 3.884596 1.488209 224 200 154
-2.587145 2.537946 -0.971089 24 36 36
-2.629016 2.579922 0.064295 15 19 18
-2.614431 2.566505 -0.845816 24 32 34
-2.637739 2.590289 0.193748 17 16 14
-2.549406 2.503545 -0.694545 19 27 29
-2.637963 2.591414 0.323522 15 14 12
-2.567086 2.522668 -0.570047 141 129 115
-2.630231 2.585624 0.452866 12 10 11
-2.604303 2.561029 -0.448479 18 30 28
-2.584515 2.541569 0.574115 93 100 92
-2.599225 2.556927 -0.318990 43 27 27
-3.936318 3.873615 1.073491 193 175 139
-2.627456 2.586504 -0.193224 19 20 15
-3.928091 3.868218 1.272773 184 161 130
-2.601265 2.562511 -0.063736 70 45 41
-3.967696 3.908584 1.492351 239 213 164
-2.605757 2.574115 -0.981442 26 38 38
-2.632796 2.601733 0.064609 19 19 19
-2.597141 2.567395 -0.843117 21 29 31
-2.640042 2.610716 0.194585 18 17 15
-2.610449 2.581452 -0.713626 23 29 29
-2.640233 2.611816 0.324917 21 20 18
-2.575113 2.548287 -0.573802 70 70 62
-2.621190 2.594789 0.452866 14 12 13
-2.644716 2.618992 -0.457010 24 28 31
-2.622897 2.598292 0.584752 97 102 95
-2.610100 2.585615 -0.321430 57 38 34
-3.925562 3.890095 1.074255 191 171 136
-2.634014 2.611127 -0.194376 20 25 28
-3.929785 3.897001 1.277722 147 131 105
-2.613600 2.592700 -0.064260 65 47 33
-3.969799 3.939430 1.498562 232 211 158
-2.607713 2.594094 -0.985583 24 36 36
-2.626533 2.613729 0.064679 22 21 16
-2.593688 2.581944 -0.844916 24 32 34
-2.637989 2.626962 0.195108 16 16 16
-2.629245 2.618255 -0.721258 24 30 30
-2.629688 2.619610 0.324742 18 17 15
-2.575997 2.567021 -0.575992 26 31 25
-2.595246 2.587106 0.449942 14 12 13
-2.646803 2.639422 -0.458960 22 28 28
-2.666020 2.658585 0.596328 97 102 95
-2.609522 2.603153 -0.322476 30 32 27
-3.920297 3.912095 1.076544 170 161 122
-2.603681 2.599140 -0.192806 22 19 14
-3.934084 3.928595 1.283571 122 106 81
-2.618681 2.615940 -0.064609 85 57 46
-3.975848 3.971687 1.505809 215 198 146
-2.604101 2.608650 -0.987653 24 36 36
-2.634344 2.639867 0.065097 32 24 22
-2.617690 2.624094 -0.855714 26 34 36
-2.613290 2.620598 0.193957 16 16 16
-2.611772 2.619076 -0.718968 25 31 31
-2.612088 2.620307 0.323696 18 17 15
-2.615620 2.625683 0.455060 15 13 14
-2.637573 2.648645 -0.458960 21 27 27
-2.699460 2.711738 0.606027 99 104 97
-2.610258 2.622130 -0.323696 28 33 36
-3.935699 3.954979 1.084558 158 149 108
-3.925844 3.947831 1.285370 95 70 50
-2.608124 2.623646 -0.064574 48 31 23
-3.977605 4.002676 1.512021 218 198 145
-2.603140 2.625956 -0.990759 25 36 40
-2.632150 2.656148 0.065272 24 18 20
-2.594800 2.619371 -0.851215 25 33 35
-2.640666 2.666602 0.196679 16 16 16
-2.613665 2.639336 -0.722021 25 31 31
-2.601524 2.627993 0.323522 15 14 12
-2.630266 2.657955 -0.592261 24 33 32
-2.610627 2.639030 0.455791 15 13 14
-2.636687 2.666304 -0.460422 21 27 27
-2.757124 2.788095 0.621045 101 106 99
-2.626302 2.656730 -0.326834 17 20 25
-3.946709 3.993829 1.091427 152 132 95
-2.620562 2.652776 -0.195422 37 32 28
-3.929840 3.979537 1.291219 112 81 60
-2.589116 2.622773 -0.064330 34 25 20
-3.981953 4.033717 1.518750 218 197 144
-2.607510 2.648794 -0.995936 27 37 39
-2.618655 2.661044 0.065167 17 22 18
-2.615706 2.658976 -0.861113 24 32 34
-2.631341 2.675803 0.196679 18 18 18
-2.607189 2.651243 -0.722784 25 31 31
-2.593732 2.638479 0.323696 16 15 13
-2.640356 2.686845 -0.596641 24 33 32
-2.625048 2.672201 0.459935 15 13 14
-2.652399 2.700986 -0.464810 25 31 31
-2.791169 2.843290 0.631057 100 103 92
-2.672842 2.722754 -0.333806 41 31 29
-3.942369 4.017391 1.094099 166 143 101
-2.621077 2.671887 -0.196155 58 50 47
-3.943213 4.021058 1.300217 133 109 83
-2.586944 2.638935 -0.064504 35 34 30
-3.976607 4.057943 1.522374 234 211 159
-2.598248 2.657879 -0.995936 26 36 38
-2.596772 2.657297 0.064853 19 21 16
-2.620026 2.682030 -0.865612 24 32 34
-2.652684 2.716409 0.198981 18 18 18
-2.611635 2.674374 -0.726601 21 30 29
-2.663836 2.728782 0.333632 14 13 11
-2.633720 2.698873 -0.597267 22 27 31
-2.629566 2.695558 0.462372 15 13 14
-2.640183 2.707386 -0.464322 27 33 33
-2.806549 2.877987 0.636688 100 103 94
-2.652195 2.720654 -0.332412 51 38 32
-3.932433 4.035346 1.095244 150 127 83
-2.627065 2.696758 -0.197307 24 16 13
-3.950907 4.057135 1.307415 161 146 117
-3.976604 4.084950 1.527550 233 207 156
-2.597028 2.675250 -0.999041 26 34 36
-2.609762 2.689306 0.065412 38 24 21
-2.605221 2.685564 -0.863812 24 32 34
-2.644576 2.727086 0.199086 17 17 15
-2.629619 2.711662 -0.734233 21 30 29
-2.619626 2.702300 0.329274 15 13 14
-2.621534 2.705213 -0.596641 27 32 36
-2.625666 2.710423 0.463347 14 14 14
-2.633478 2.719438 -0.464810 25 34 33
-2.844583 2.937433 0.647639 96 101 94
-2.645454 2.732758 -0.332761 32 38 36
-3.937437 4.068799 1.100586 204 182 133
-2.620413 2.708782 -0.197516 61 52 47
-3.952976 4.087712 1.312814 140 120 93
-2.621272 2.711564 -0.065830 24 30 28
-3.983804 4.121029 1.535832 239 212 159
-2.598400 2.695425 -1.003183 29 35 35
-2.615622 2.714239 0.065796 64 54 45
-2.617462 2.717097 -0.871010 23 31 33
-2.639197 2.740616 0.199400 17 17 15
-2.633756 2.734966 -0.738049 25 34 33
-2.633667 2.735829 0.332238 15 13 14
-2.633991 2.737121 -0.601647 23 27 28
-2.636832 2.741031 0.467003 13 13 13
-2.630849 2.735768 -0.466028 24 33 32
-2.855701 2.970624 0.652645 92 97 90
-2.635899 2.741976 -0.332761 30 39 36
-3.949056 4.109415 1.107837 204 183 136
-2.619243 2.726555 -0.198144 54 46 43
-3.941383 4.104297 1.313714 105 81 53
-2.603482 2.712042 -0.065621 22 31 28
-3.990800 4.157208 1.544114 247 220 167
-2.615694 2.732389 -1.013535 39 43 46
-2.604749 2.721908 0.065761 34 31 24
-2.621433 2.740299 -0.875510 23 31 33
-2.621332 2.741151 0.198772 21 21 19
-2.605197 2.724278 -0.732707 28 37 36
-2.618594 2.739245 0.331540 15 13 14
-2.618961 2.740586 -0.600396 43 44 46
-2.634104 2.757396 0.468222 13 13 13
-2.628139 2.752113 -0.467247 24 33 32
-2.860319 2.996292 0.656086 81 86 80
-2.664832 2.791513 -0.337641 23 32 31
-3.948241 4.137378 1.111653 205 186 146
-2.631768 2.758803 -0.199819 26 27 29
-3.922998 4.113799 1.312364 208 172 146
-3.999526 4.196981 1.553432 240 219 164
-2.586174 2.720500 -1.005771 33 33 33
-2.591100 2.726635 0.065656 23 32 29
-2.614536 2.752258 -0.876409 24 30 30
-2.636504 2.776354 0.200656 19 19 17
-2.611894 2.750439 -0.737286 23 32 31
-2.625477 2.765709 0.333632 15 13 14
-2.622976 2.764040 -0.603524 39 39 39
-2.632660 2.775214 0.469684 13 13 13
-2.637639 2.781435 -0.470659 26 35 34
-2.897408 3.056434 0.667037 83 84 78
-2.649589 2.795014 -0.336944 23 32 31
-3.949980 4.168235 1.116233 175 156 116
-2.626242 2.772323 -0.200133 25 25 25
-3.947473 4.168502 1.325412 161 141 108
-2.611980 2.759196 -0.066319 23 29 29
-3.990898 4.215833 1.555502 234 216 166
-2.591250 2.744964 -1.011465 47 42 36
-2.612936 2.769873 -0.879109 23 29 29
-2.625426 2.784087 0.200551 19 19 17
-2.610359 2.768109 -0.739576 27 32 28
-2.615807 2.774856 0.333632 15 13 14
-2.607893 2.767429 -0.602273 31 31 29
-2.663791 2.827735 0.476997 13 13 13
-2.652410 2.816639 -0.475047 24 33 32
-3.087112 3.279403 0.713341 84 89 82
-2.650742 2.815851 -0.338339 23 32 31
-3.948861 4.196295 1.120049 185 168 122
-2.638445 2.804749 -0.201807 26 25 21
-3.955593 4.206389 1.333060 233 211 172
-2.624247 2.791609 -0.066878 24 28 29
-3.993359 4.248036 1.562232 230 214 165
-2.584776 2.756360 -1.012500 86 77 68
-2.647699 2.824448 0.067576 25 27 24
-2.609066 2.784211 -0.880908 23 32 31
-2.642615 2.820011 0.202540 19 19 17
-2.614587 2.791078 -0.743392 38 34 31
-2.636552 2.815510 0.337467 14 14 14
-2.625701 2.804904 -0.608530 36 42 38
-2.635410 2.816261 0.473584 15 15 15
-2.640343 2.822520 -0.474559 28 37 36
-3.223887 3.446326 0.747444 91 99 88
-2.657720 2.842089 -0.340430 24 33 32
-3.956375 4.232314 1.126155 200 183 139
-2.630493 2.814943 -0.201912 56 37 23
-3.949604 4.228028 1.335759 198 175 131
-2.634083 2.820757 -0.067366 17 27 28
-3.999028 4.282434 1.569996 230 214 165
-2.596203 2.787987 -1.020782 88 81 75
-2.643274 2.839528 0.067715 21 25 24
-2.607297 2.801861 -0.883608 29 35 35
-2.644505 2.842839 0.203482 18 18 18
-2.596806 2.791563 -0.741102 32 24 21
-2.628064 2.826155 0.337641 14 14 14
-2.617239 2.815499 -0.608843 33 42 41
-2.644482 2.845801 0.476997 15 15 15
-2.638581 2.840445 -0.476022 29 38 37
-3.269033 3.520362 0.760897 80 88 77
-2.658629 2.863029 -0.341825 24 33 32
-3.962948 4.269120 1.132261 176 158 118
-2.632878 2.837284 -0.202854 92 76 61
-3.948074 4.256076 1.340258 231 209 162
-2.632379 2.838732 -0.067576 25 26 30
-3.996438 4.311231 1.575173 215 195 145
-2.596948 2.808379 -1.024923 42 38 35
-2.655064 2.872232 0.068274 21 25 24
-2.605436 2.819532 -0.886307 23 29 29
-2.656750 2.875063 0.205157 18 18 18
-2.563067 2.774652 -0.734233 57 47 45
-2.664140 2.885079 0.343568 14 14 14
-2.640892 2.860905 -0.616665 37 41 44
-2.656071 2.878357 0.480896 14 14 14
-2.634034 2.855475 -0.476997 25 34 33
-3.345107 3.627597 0.781547 84 96 84
-2.656723 2.881080 -0.342871 26 32 32
-3.963989 4.300250 1.136840 147 127 90
-2.631078 2.855270 -0.203482 59 49 39
-3.959600 4.298498 1.349256 234 213 166
-2.629226 2.855259 -0.067750 41 32 33
-4.006983 4.351460 1.585008 227 206 153
-2.589742 2.820273 -1.025959 87 89 104
-2.653136 2.890321 0.068483 21 25 24
-2.614024 2.848711 -0.892606 29 33 34
-2.646698 2.884319 0.205157 19 19 19
-2.549384 2.779242 -0.733088 38 29 24
-2.675598 2.917857 0.346357 14 14 14
-2.620211 2.858457 -0.614162 37 37 39
-2.643326 2.884684 0.480409 14 14 14
-2.650867 2.893928 -0.481871 30 36 36
-3.527193 3.851954 0.827225 89 96 88
-2.657414 2.902091 -0.344265 24 28 29
-3.978118 4.345920 1.145236 191 169 132
-2.626489 2.870330 -0.203901 44 25 21
-3.962985 4.332424 1.355555 208 190 142
-2.608448 2.852613 -0.067471 47 33 33
-4.000895 4.375401 1.588631 212 192 142
-2.350791 2.578056 -0.934854 47 43 40
-2.637642 2.893654 0.068344 24 28 27
-2.619815 2.875104 -0.898005 31 31 33
-2.649559 2.908766 0.206204 19 19 19
-2.560820 2.811346 -0.739194 48 44 41
-2.633202 2.891823 0.342173 14 14 14
-2.626174 2.885115 -0.617916 60 59 57
-2.643928 2.905639 0.482359 14 14 14
-2.654107 2.917848 -0.484309 30 36 36
-3.606115 3.964458 0.848813 72 79 72
-2.628502 2.890712 -0.341825 22 26 27
-3.968205 4.365591 1.146762 175 150 120
-2.627199 2.891306 -0.204738 105 86 80
-3.970113 4.370753 1.363203 231 209 162
-2.617295 2.882427 -0.067960 34 27 21
-4.008203 4.415783 1.597949 206 188 138
-2.336591 2.580518 -0.932784 34 34 44
-2.624841 2.899878 0.068274 19 23 22
-2.609763 2.884231 -0.898005 28 34 34
-2.647938 2.926422 0.206832 19 19 19
-2.612889 2.888700 -0.757130 39 39 37
-2.620419 2.898041 0.341825 14 14 14
-2.630657 2.910385 -0.621358 29 35 35
-2.637762 2.919269 0.483090 15 15 15
-2.647897 2.931514 -0.485040 36 38 37
-3.660399 4.053888 0.865083 96 101 95
-2.639759 2.923530 -0.344614 26 35 32
-3.968728 4.396904 1.151341 168 145 114
-2.629132 2.913805 -0.205680 50 38 26
-3.961358 4.391820 1.365453 222 200 159
-2.625964 2.912338 -0.068448 23 19 10
-4.006992 4.445532 1.603643 162 144 98
-2.340485 2.603024 -0.937960 94 96 108
-2.644111 2.941742 0.069042 22 21 19
-2.599679 2.893323 -0.898005 26 36 37
-2.648386 2.947532 0.207669 25 21 18
-2.597543 2.891961 -0.755604 36 25 19
-2.644896 2.945715 0.346357 14 14 14
-2.627080 2.926900 -0.622922 24 28 29
-2.642950 2.946651 -0.486015 30 32 29
-3.708927 4.135119 0.879787 88 95 87
-2.626878 2.929760 -0.344265 19 25 23
-3.976942 4.437046 1.158211 170 151 111
-2.634939 2.940815 -0.206936 62 49 33
-3.961605 4.423040 1.370852 214 194 157
-2.639793 2.948303 -0.069077 40 25 18
-4.019794 4.491161 1.615031 231 210 165
-2.318518 2.596768 -0.932784 81 85 94
-2.656463 2.976315 0.069635 48 35 27
-2.599943 2.914013 -0.901604 26 36 38
-2.648719 2.968682 0.208506 25 21 18
-2.610954 2.927383 -0.762473 78 65 57
-2.661116 2.984673 0.349843 14 14 14
-2.645762 2.968495 -0.629805 19 21 20
-2.639767 2.962809 0.487234 14 14 14
-2.637929 2.961787 -0.486990 31 31 29
-3.747023 4.207045 0.892302 92 99 91
-2.639158 2.964209 -0.347228 27 29 28
-3.967956 4.458234 1.160119 186 169 126
-2.628640 2.954471 -0.207250 24 21 16
-3.969454 4.463052 1.378950 194 172 133
-2.621513 2.948532 -0.068867 53 40 32
-4.011793 4.513829 1.618137 190 172 126
-2.312003 2.607736 -0.933819 40 49 54
-2.642079 2.981081 0.069530 54 43 37
-2.615601 2.952243 -0.910602 29 34 38
-2.631718 2.970434 0.207983 23 19 16
-2.605926 2.942358 -0.763999 47 42 38
-2.674454 3.020795 0.352981 15 15 15
-2.638002 2.980671 -0.630431 24 24 22
-2.653085 2.998767 0.491621 14 14 14
-2.634150 2.978412 -0.488209 32 33 28
-3.795131 4.291124 0.907320 81 86 79
-2.648590 2.995793 -0.349843 23 23 23
-3.979672 4.502950 1.168133 167 149 113
-2.628890 2.975603 -0.208088 22 27 30
-3.974490 4.500251 1.386148 223 198 158
-2.616498 2.963661 -0.069007 33 31 19
-4.012146 4.544487 1.624348 142 123 81
-2.292674 2.604191 -0.929678 51 60 65
-2.611840 2.967768 0.069007 24 19 16
-2.610428 2.967208 -0.912401 29 34 38
-2.618694 2.976604 0.207774 26 22 19
-2.603419 2.960282 -0.766289 46 48 47
-2.666524 3.033105 0.353329 16 16 16
-2.623670 2.985410 -0.629492 17 16 14
-2.655703 3.022923 0.494058 16 16 16
-2.632907 2.998030 -0.489915 41 40 35
-3.827055 4.357779 0.918583 82 84 79
-2.643374 3.011009 -0.350540 33 37 36
-3.982059 4.537473 1.173475 168 152 119
-2.615853 2.981759 -0.207878 18 27 24
-3.974176 4.531679 1.391547 215 194 149
-2.599546 2.965258 -0.068832 26 19 9
-4.009468 4.575143 1.630042 168 149 109
-2.299745 2.628829 -0.935890 66 76 78
-2.607769 2.981980 0.069146 35 27 25
-2.616485 2.993000 -0.917800 24 29 33
-2.627209 3.006326 0.209239 25 21 18
-2.612192 2.989142 -0.771632 20 25 28
-2.656982 3.041467 0.353329 17 17 17
-2.638966 3.021908 -0.635437 24 22 25
-2.651415 3.037233 0.495033 16 16 16
-2.645664 3.031713 -0.494058 51 47 46
-3.862701 4.426338 0.930472 84 86 81
-2.636522 3.022301 -0.350889 25 31 29
-3.987140 4.572155 1.179200 112 108 79
-2.623534 3.009534 -0.209239 25 26 21
-3.986806 4.574995 1.400995 224 206 158
-2.603353 2.988488 -0.069181 93 68 64
-4.025061 4.620522 1.641948 115 95 60
-2.270284 2.613505 -0.927607 33 37 40
-2.622256 3.019752 0.069810 49 34 27
-2.613686 3.010945 -0.920500 30 34 37
-2.619317 3.018495 0.209449 25 19 19
-2.603029 2.999725 -0.772013 33 41 44
-2.665932 3.073298 0.355944 18 18 18
-2.636166 3.040055 -0.637314 27 28 30
-2.656400 3.064470 0.497958 15 15 15
-2.633765 3.039430 -0.493815 58 58 56
-3.898186 4.500189 0.942987 85 92 84
-2.631174 3.037510 -0.351586 30 36 32
-3.981437 4.597918 1.182253 101 79 55
-2.645692 3.056425 -0.211856 26 26 24
-3.978463 4.597725 1.403695 234 216 166
-2.620378 3.029318 -0.069914 80 69 63
-4.023262 4.652779 1.648160 148 128 95
-2.187963 2.536569 -0.897584 21 25 28
-2.623451 3.042517 0.070124 57 43 34
-2.612066 3.030382 -0.923649 32 33 35
-2.628320 3.050316 0.211019 22 18 17
-2.596387 3.013255 -0.773158 29 37 39
-2.662990 3.091643 0.356990 20 20 20
-2.651317 3.079177 -0.643571 28 34 34
-2.662522 3.093282 0.501127 15 15 15
-3.911587 4.546034 0.949870 81 84 77
-2.630949 3.058760 -0.352981 34 36 33
-3.993523 4.644538 1.190648 140 104 78
-2.629799 3.059583 -0.211437 24 23 21
-3.982709 4.635234 1.410893 236 216 165
-2.625423 3.056650 -0.070333 26 22 19
-4.025433 4.686612 1.655407 152 132 95
-2.141395 2.500174 -0.882055 18 22 25
-2.612815 3.051656 0.070124 58 45 36
-2.592602 3.029118 -0.920500 25 26 28
-2.663102 3.112588 0.214682 21 21 19
-2.616485 3.058102 -0.782317 34 36 31
-2.650887 3.099406 0.356816 15 15 15
-2.640552 3.088413 -0.643571 30 34 33
-2.658156 3.110102 0.502345 16 16 16
-2.634403 3.083400 -0.497958 38 44 40
-3.935951 4.608407 0.959882 68 67 62
-2.640959 3.092165 -0.355770 36 35 33
-3.995133 4.679353 1.195991 218 183 151
-2.625586 3.076340 -0.211961 29 25 22
-3.985477 4.671345 1.417642 233 213 160
-2.616035 3.067317 -0.070368 19 19 17
-4.013242 4.707215 1.657477 200 178 137
-2.147233 2.525668 -0.888267 34 38 41
-2.611973 3.073402 0.070403 79 69 60
-2.616811 3.080184 -0.933097 39 35 32
-2.641333 3.110149 0.213845 19 18 16
-2.625592 3.091614 -0.788423 37 28 21
-2.622746 3.089356 0.354550 15 15 15
-2.618989 3.086022 -0.641068 40 40 40
-2.657013 3.131934 0.504295 16 16 16
-2.637208 3.109688 -0.500639 40 42 39
-3.942838 4.649236 0.965514 67 70 63
-2.619301 3.089666 -0.354375 39 35 34
-3.989379 4.707444 1.199425 204 182 141
-2.640113 3.116421 -0.214054 41 33 30
-3.987220 4.708228 1.424390 230 210 157
-2.631908 3.108936 -0.071101 37 24 16
-4.022999 4.752159 1.668348 177 157 120
-2.138403 2.533148 -0.888267 33 37 40
-2.612835 3.096255 0.070717 58 45 37
-2.602273 3.084831 -0.931747 42 38 35
-2.667799 3.163628 0.216880 29 20 21
-2.631238 3.120271 -0.793384 46 31 28
-2.618367 3.106109 0.355421 15 15 15
-2.629841 3.120825 -0.646387 25 29 30
-2.656296 3.153336 0.506245 16 16 16
-2.658303 3.156836 -0.506733 35 35 35
-3.939765 4.680279 0.968955 68 75 68
-2.611066 3.101839 -0.354724 42 38 37
-3.993147 4.745376 1.205531 205 190 147
-2.626648 3.122561 -0.213845 42 33 28
-3.988320 4.742999 1.430689 228 210 160
-2.623613 3.121165 -0.071171 67 45 34
-4.030411 4.796452 1.678700 142 125 81
-2.128307 2.539116 -0.887749 29 33 36
-2.591737 3.093095 0.070438 46 28 24
-2.600249 3.104353 -0.934897 37 31 33
-2.650329 3.165265 0.216357 23 21 22
-2.629153 3.139974 -0.796055 23 18 12
-2.689353 3.213010 0.366577 16 14 15
-2.646819 3.163315 -0.653270 29 26 17
-2.650367 3.168679 0.507220 17 16 14
-2.647267 3.166096 -0.506733 34 30 27
-3.969839 4.747874 0.980218 61 61 51
-2.614278 3.127750 -0.356641 40 44 43
-3.996699 4.783391 1.211637 148 135 93
-2.641339 3.162369 -0.215938 23 24 19
-3.995470 4.785313 1.439237 213 195 149
-2.630642 3.151797 -0.071660 77 60 50
-4.036765 4.836487 1.688018 159 142 98
-2.115723 2.542075 -0.886196 30 35 41
-2.597551 3.122107 0.070892 39 28 22
-2.605596 3.132889 -0.940745 33 27 27
-2.653310 3.191391 0.217508 19 18 14
-2.609390 3.138565 -0.793384 47 38 33
-2.670481 3.213185 0.365531 15 13 14
-2.652171 3.192287 -0.657338 60 44 31
-2.664655 3.208453 0.512095 17 16 14
-2.648879 3.190591 -0.509170 29 22 16
-3.961241 4.773033 0.982408 107 99 80
-2.642789 3.184385 -0.362045 30 29 25
-4.002542 4.824510 1.218506 172 158 119
-2.649409 3.194630 -0.217508 28 27 23
-3.991179 4.814233 1.443736 201 182 139
-2.613244 3.153262 -0.071485 83 65 53
-4.043660 4.881003 1.698371 203 180 149
-2.103145 2.544978 -0.884643 35 39 48
-2.636306 3.191280 0.072253 40 27 19
-2.630629 3.185541 -0.953792 22 18 15
-2.640882 3.199093 0.217404 36 29 23
-2.629665 3.185505 -0.802924 55 34 33
-2.673198 3.239391 0.367449 17 15 16
-2.646040 3.207621 -0.658589 72 52 41
-2.676173 3.245303 0.516482 16 16 14
-2.641514 3.204413 -0.509901 34 34 32
-3.986856 4.836443 0.992733 145 128 98
-2.637992 3.201279 -0.362916 36 29 23
-4.005649 4.862698 1.224612 174 156 118
-2.645859 3.213109 -0.218136 27 23 20
-4.005312 4.865750 1.454983 204 186 146
-2.600950 3.160821 -0.071450 67 43 31
-4.040955 4.910795 1.704065 123 92 71
-2.101601 2.561264 -0.887749 48 53 59
-2.639101 3.217470 0.072637 53 39 30
-2.639263 3.218815 -0.960991 44 39 35
-2.647424 3.229917 0.218869 27 20 14
-2.630975 3.209848 -0.806740 84 69 66
-2.656823 3.242538 0.366751 16 14 15
-2.637331 3.219894 -0.659215 72 54 50
-2.664828 3.254625 0.516482 16 16 14
-2.646657 3.233584 -0.513070 28 27 25
-4.003731 4.891603 1.001181 144 128 92
-2.653297 3.242850 -0.366577 56 49 39
-4.008537 4.900965 1.230718 176 158 122
-2.657382 3.250158 -0.220020 27 19 17
-4.005569 4.900826 1.461282 169 151 111
-2.600023 3.182269 -0.071729 86 68 58
-4.048234 4.954791 1.714417 102 70 55
-2.118272 2.600037 -0.898620 32 37 41
-2.645532 3.248371 0.073126 47 33 24
-2.640315 3.243120 -0.965490 17 16 12
-2.633612 3.236041 0.218660 25 21 20
-2.633386 3.235762 -0.810938 103 97 97
-2.679437 3.293521 0.371458 18 16 17
-2.642277 3.249004 -0.663282 63 49 40
-2.650947 3.260826 0.515995 16 15 13
-2.639110 3.247424 -0.513801 36 29 23
-4.014423 4.941508 1.008377 169 154 113
-2.648242 3.259824 -0.367449 39 35 23
-4.011208 4.939312 1.236824 181 161 126
-2.613292 3.219098 -0.217299 37 29 27
-4.011769 4.943528 1.469830 199 184 141
-2.592678 3.195984 -0.071834 46 37 32
-4.046736 4.988395 1.721147 56 45 23
-2.137128 2.641960 -0.910525 20 25 28
-2.626633 3.248256 0.072916 84 70 61
-2.621628 3.243224 -0.962790 13 14 18
-2.641130 3.268516 0.220230 15 15 15
-2.618373 3.240354 -0.809793 31 31 29
-2.665420 3.299754 0.371109 18 16 17
-2.644571 3.275113 -0.666724 86 77 68
-2.660744 3.296319 0.520138 16 14 15
-2.648950 3.282880 -0.517945 27 29 28
-4.013272 4.975479 1.012444 178 162 126
-2.650607 3.286107 -0.369366 28 27 22
-4.016124 4.980793 1.243693 198 176 135
-2.650922 3.288846 -0.221381 31 32 26
-4.006715 4.972676 1.474329 195 176 136
-2.626664 3.261079 -0.073091 43 42 38
-4.049021 5.028774 1.729946 49 43 21
-2.117925 2.635109 -0.905867 16 17 21
-2.648980 3.297022 0.073824 23 23 21
-2.606545 3.245367 -0.960991 10 13 18
-2.628347 3.273682 0.220020 17 17 17
-2.627846 3.273058 -0.815899 25 30 26
-2.679982 3.339188 0.374595 17 15 16
-2.636741 3.286487 -0.667349 25 24 20
-2.676457 3.337182 0.525257 18 14 13
-2.646074 3.300478 -0.519407 35 32 27
-4.017387 5.012725 1.017450 167 153 118
-2.655222 3.313074 -0.371458 37 33 32
-4.027462 5.027094 1.252089 200 178 139
-2.650564 3.309629 -0.222218 29 28 23
-4.015431 5.015665 1.483327 189 170 137
-2.588917 3.234967 -0.072323 28 29 24
-4.054604 5.066407 1.738746 75 69 47
-2.079794 2.606246 -0.893443 36 37 41
-2.632467 3.299996 0.073684 23 25 24
-2.597631 3.257493 -0.961891 10 14 17
-2.664213 3.342184 0.223998 17 17 17
-2.650670 3.325196 -0.826585 30 32 31
-2.668310 3.348523 0.374595 19 17 18
-2.628946 3.300306 -0.668288 25 25 23
-2.677157 3.362033 0.527694 18 14 11
-2.649372 3.328332 -0.522332 50 43 37
-4.017084 5.048358 1.021830 138 127 99
-2.658528 3.341031 -0.373550 43 39 40
-4.028222 5.064168 1.257813 156 137 95
-2.660127 3.345437 -0.223998 69 64 61
-4.016088 5.052533 1.490076 135 115 88
-2.603734 3.276863 -0.073056 37 36 32
-4.053719 5.101704 1.745993 77 66 46
-2.056288 2.595320 -0.887232 34 35 39
-2.648246 3.343652 0.074452 18 20 19
-2.595921 3.278763 -0.965490 13 13 13
-2.692788 3.401109 0.227347 19 19 19
-2.629300 3.322113 -0.823532 24 24 22
-2.681329 3.389067 0.378082 17 15 16
-2.660298 3.363691 -0.679238 48 38 28
-2.672792 3.380701 0.529157 20 15 12
-2.646354 3.348462 -0.524038 51 43 40
-4.028492 5.097297 1.029026 72 58 32
-2.664141 3.372177 -0.375990 37 28 29
-4.025121 5.096687 1.262392 196 177 137
-2.665760 3.376649 -0.225463 30 26 25
-4.022572 5.097116 1.499074 103 83 58
-2.636868 3.342450 -0.074312 43 39 36
-4.050244 5.134024 1.752205 145 129 104
-2.035272 2.587298 -0.882055 45 46 51
-2.669932 3.395317 0.075394 26 28 27
-2.562783 3.260227 -0.957392 13 13 15
-2.650687 3.373266 0.224835 19 19 19
-2.620114 3.334358 -0.824295 28 24 21
-2.662098 3.389005 0.377036 17 15 16
-2.649760 3.374510 -0.679551 100 88 74
-2.662201 3.391572 0.529400 22 17 14
-2.640777 3.365487 -0.525257 54 45 46
-4.025632 5.132234 1.033093 137 113 89
-2.662191 3.393998 -0.377384 47 40 34
-4.029111 5.138516 1.269261 192 173 133
-2.666278 3.401653 -0.226510 30 30 28
-4.026389 5.138738 1.507172 110 88 64
-2.656011 3.390991 -0.075185 35 30 27
-4.046883 5.168608 1.758934 126 98 74
-2.026681 2.594033 -0.882055 69 69 77
-2.664813 3.412032 0.075569 24 26 25
-2.583137 3.308645 -0.969089 13 13 15
-2.636389 3.376854 0.224521 19 19 19
-2.635616 3.377078 -0.832690 41 31 22
-2.593245 3.323982 0.368843 17 15 16
-2.655563 3.405086 -0.683931 33 36 27
-2.665585 3.419168 0.532325 17 12 8
-2.627161 3.371094 -0.524769 29 25 26
-4.038940 5.184513 1.040915 184 154 128
-2.650921 3.402807 -0.377384 52 43 38
-4.033762 5.179730 1.276131 193 173 138
-2.646394 3.399444 -0.225777 32 34 31
-4.020098 5.165903 1.511221 112 96 71
-2.645979 3.401358 -0.075220 26 16 15
-4.057907 5.216367 1.770840 176 156 123
-2.031822 2.619409 -0.888267 46 46 56
-2.665140 3.437116 0.075918 19 25 23
-2.552470 3.292998 -0.961891 13 13 15
-2.663741 3.436550 0.227871 18 18 16
-2.641849 3.409535 -0.838415 60 51 42
-2.596267 3.351916 0.370935 17 15 16
-2.648498 3.420582 -0.685183 29 34 27
-2.649989 3.423742 0.531594 25 18 12
-2.655465 3.432055 -0.532813 23 30 23
-4.030487 5.211080 1.043418 167 144 110
-2.664625 3.445136 -0.381045 44 36 33
-4.043276 5.229501 1.284908 175 156 126
-2.644283 3.421303 -0.226615 32 28 25
-4.019912 5.203035 1.517970 113 93 68
-2.641424 3.420069 -0.075429 46 32 29
-4.043216 5.235086 1.772393 147 136 104
-2.034453 2.641792 -0.893443 96 99 108
-2.668983 3.466997 0.076372 19 23 22
-2.548091 3.311154 -0.964590 14 14 16
-2.659652 3.457371 0.228603 17 19 18
-2.635916 3.426517 -0.840323 27 29 28
-2.665925 3.466778 0.382614 17 15 16
-2.648581 3.445468 -0.688312 46 47 42
-2.677937 3.484915 0.539637 21 12 5
-2.653143 3.453897 -0.534763 34 35 27
-4.037251 5.255748 1.049675 146 132 106
-2.652583 3.454416 -0.381045 72 67 63
-4.044124 5.268501 1.291014 105 89 63
-2.677311 3.489140 -0.230488 34 23 17
-4.029005 5.252599 1.528317 106 88 66
-2.642854 3.446725 -0.075813 43 33 24
-4.046331 5.279002 1.782228 110 107 90
-2.121435 2.774722 -0.935890 31 40 45
-2.653222 3.471526 0.076267 25 27 26
-2.545982 3.332417 -0.968189 14 14 16
-2.676060 3.502675 0.231011 21 21 21
-2.621556 3.432577 -0.839560 24 25 27
-2.651389 3.472896 0.382265 18 16 17
-2.652117 3.475106 -0.692379 20 16 13
-2.682612 3.516337 0.543050 20 16 13
-2.675980 3.508913 -0.541831 44 31 23
-4.038320 5.297216 1.054994 149 141 128
-2.641717 3.465239 -0.381219 54 51 46
-4.042368 5.304447 1.296356 108 105 90
-2.676008 3.512763 -0.231430 91 76 69
-4.033078 5.296088 1.536866 113 103 91
-2.641708 3.470249 -0.076127 58 48 38
-4.046597 5.317692 1.790510 106 97 90
-2.136264 2.814424 -0.946760 33 43 45
-2.697899 3.555639 0.077908 29 28 24
-2.524913 3.328862 -0.964590 13 13 15
-2.669852 3.519951 0.231534 26 21 17
-2.633282 3.472995 -0.847192 23 18 14
-2.670541 3.523413 0.386797 18 16 17
-2.649514 3.496938 -0.694882 29 24 21
-2.677513 3.535174 0.544512 20 16 15
-2.685284 3.546720 -0.546218 59 46 38
-4.051733 5.351526 1.063129 156 148 135
-2.640426 3.488737 -0.382788 40 37 32
-4.046334 5.348272 1.303607 97 93 82
-2.649273 3.502967 -0.230174 55 45 36
-4.020442 5.317907 1.539115 79 63 50
-2.633195 3.484235 -0.076232 74 61 53
-4.067604 5.384193 1.808110 82 60 47
-2.212461 2.936035 -0.985065 22 21 26
-2.656595 3.526701 0.077070 37 33 30
-2.510933 3.334542 -0.963690 15 16 18
-2.647938 3.516485 0.230697 49 39 30
-2.654202 3.526085 -0.857877 29 23 23
-2.686976 3.570922 0.390981 22 20 21
-2.662227 3.539317 -0.701452 23 25 22
-2.683051 3.568298 0.548168 18 17 15
-2.647840 3.522748 -0.541100 47 34 28
-4.048458 5.386164 1.067196 118 105 89
-2.662940 3.544126 -0.387843 27 16 12
-4.040610 5.379632 1.307805 82 61 44
-2.669408 3.555317 -0.233000 46 41 35
-4.032269 5.372431 1.550813 158 131 110
-2.619817 3.491806 -0.076197 44 29 26
-4.089353 5.452451 1.826227 102 85 69
-2.203999 2.947218 -0.986101 25 23 28
-2.619705 3.504381 0.076372 30 29 27
-2.501028 3.346845 -0.964590 16 17 19
-2.621880 3.508568 0.229546 53 48 44
-2.653010 3.551518 -0.861693 41 37 36
-2.692944 3.606289 0.393770 17 16 14
-2.656327 3.558549 -0.703329 23 19 18
-2.685388 3.598791 0.551337 20 19 17
-2.657461 3.562662 -0.545731 57 39 29
-4.047587 5.426301 1.072202 140 119 92
-2.622540 3.517126 -0.383834 47 36 32
-4.052544 5.436905 1.318109 128 114 88
-2.663519 3.574686 -0.233628 31 32 27
-4.038161 5.421557 1.560710 144 119 89
-2.647605 3.555918 -0.077384 82 65 55
-4.085294 5.486836 1.832956 89 67 44
-2.184485 2.942485 -0.981959 19 17 20
-2.656317 3.579343 0.077803 28 24 23
-2.477719 3.339904 -0.960091 31 32 34
-2.569158 3.463161 0.225987 18 14 11
-2.642936 3.563911 -0.862457 26 22 21
-2.636438 3.556447 0.387320 17 16 14
-2.649770 3.575735 -0.704894 47 36 34
-2.695260 3.638449 0.555968 21 20 18
-2.654460 3.584679 -0.547681 62 43 29
-4.040377 5.456271 1.075330 173 152 125
-2.654106 3.585510 -0.390283 55 52 45
-4.055729 5.481003 1.325359 103 97 71
-2.658151 3.593596 -0.234256 33 30 25
-4.050494 5.477927 1.572858 124 103 74
-2.660137 3.598909 -0.078117 40 23 15
-4.077785 5.518863 1.838650 171 141 113
-2.175231 2.949333 -0.981959 18 16 19
-2.660485 3.608594 0.078257 40 34 34
-2.157367 2.927251 -0.839517 13 13 15
-2.529228 3.433069 0.223475 24 19 16
-2.641042 3.584841 -0.865510 27 23 22
-2.645337 3.591985 0.390283 17 16 14
-2.696759 3.664486 0.558649 22 21 19
-2.647891 3.599397 -0.548656 81 69 55
-4.061844 5.521447 1.085655 158 142 117
-2.680601 3.645194 -0.395861 23 20 15
-4.061747 5.525354 1.332992 119 109 84
-2.670502 3.634118 -0.236349 26 23 16
-4.052877 5.517324 1.580506 176 155 124
-2.652369 3.612083 -0.078222 40 29 23
-4.062535 5.532495 1.839168 201 168 135
-2.160357 2.950673 -0.979889 20 18 19
-2.665588 3.642064 0.078780 29 25 24
-2.142534 2.928473 -0.837718 13 13 15
-2.669324 3.649841 0.236977 22 17 14
-2.619241 3.581361 -0.862457 27 25 26
-2.678642 3.663924 0.397082 17 16 14
-2.665626 3.647455 -0.715531 63 39 27
-2.696832 3.691509 0.561330 23 22 20
-2.651700 3.631061 -0.552068 32 37 33
-4.059050 5.560229 1.090348 114 102 80
-2.669035 3.656138 -0.396036 50 45 41
-4.047064 5.545843 1.334518 134 112 88
-2.644852 3.625669 -0.235198 40 31 26
-4.029001 5.525139 1.578707 141 118 86
-2.650345 3.635863 -0.078536 38 33 29
-4.061571 5.573890 1.847968 164 131 98
-2.158612 2.971074 -0.984030 19 18 16
-2.671023 3.677697 0.079339 25 30 26
-2.131786 2.936306 -0.837718 16 16 18
-2.671179 3.680613 0.238338 27 26 22
-2.617628 3.606826 -0.866273 45 39 39
-2.702634 3.725323 0.402660 17 16 14
-2.664996 3.674791 -0.718973 78 64 51
-2.692605 3.714226 0.563280 24 23 21
-2.640704 3.643971 -0.552556 28 39 41
-4.036139 5.569566 1.089410 130 115 92
-2.677825 3.696553 -0.399348 54 43 37
-4.024407 5.557458 1.333755 118 95 64
-2.661996 3.677403 -0.237919 50 37 31
-4.013293 5.546184 1.580506 230 202 163
-2.658097 3.674717 -0.079164 34 30 29
-4.036429 5.580207 1.845380 196 166 130
-2.139187 2.966057 -0.979889 21 20 18
-2.678050 3.714574 0.079932 25 29 30
-2.123802 2.946892 -0.838618 18 18 20
-2.665320 3.699638 0.238966 23 19 16
-2.648630 3.676472 -0.880774 73 71 74
-2.683792 3.726651 0.401788 15 15 15
-2.661385 3.696897 -0.721476 38 33 29
-2.690059 3.738104 0.565474 49 49 41
-2.661585 3.699898 -0.559624 43 42 38
-9.800519 13.628824 2.658760 114 97 81
-2.670721 3.713965 -0.400219 78 60 48
-9.789578 13.618623 3.260163 139 127 103
-2.686438 3.738575 -0.241269 41 31 29
-3.996182 5.563325 1.581406 194 164 126
-2.661583 3.706714 -0.079653 35 18 10
-4.022708 5.604381 1.848486 165 139 104
-2.131590 2.976275 -0.980924 18 18 18
-2.675030 3.736442 0.080211 22 26 27
-2.123091 2.966596 -0.842217 16 18 15
-2.687899 3.757188 0.242106 22 18 15
-2.638709 3.688429 -0.881538 97 105 118
-2.684168 3.753357 0.403705 16 16 16
-2.653706 3.712130 -0.722727 31 26 22
-2.714581 3.798687 0.573273 43 42 37
-2.685072 3.758778 -0.567180 46 38 36
-9.774878 13.683657 2.663453 133 113 88
-2.664180 3.730908 -0.401091 94 80 69
-3.999033 5.602300 1.337953 179 161 123
-2.674026 3.747463 -0.241269 38 30 28
-3.976580 5.574960 1.580956 161 131 93
-2.657403 3.726917 -0.079897 51 33 23
-3.978164 5.579240 1.836062 126 106 71
-2.121187 2.983698 -0.980924 17 17 17
-2.701356 3.801177 0.081398 24 26 25
-2.103694 2.961279 -0.838618 16 18 15
-2.695583 3.795859 0.243990 23 19 16
-2.695270 3.796821 0.407366 17 17 17
-2.649878 3.734258 -0.725230 57 47 38
-2.710493 3.821092 0.575223 32 31 26
-2.671935 3.768128 -0.567180 45 31 28
-9.747506 13.751623 2.669711 203 178 148
-2.676488 3.775945 -0.404926 51 36 29
-3.947672 5.571372 1.327267 176 152 114
-2.671318 3.771442 -0.242211 45 41 40
-3.944709 5.571311 1.576007 163 134 94
-2.669793 3.772079 -0.080665 56 40 27
-9.763117 13.799155 4.529333 86 69 39
-2.101849 2.978456 -0.976783 19 19 21
-2.701903 3.830192 0.081817 27 26 21
-2.091098 2.965420 -0.837718 19 19 19
-2.690372 3.816672 0.244723 27 23 20
-2.572174 3.648993 -0.867799 90 106 122
-2.693476 3.822493 0.409109 16 16 16
-2.662990 3.780630 -0.732426 42 38 37
-2.679996 3.806184 0.571567 21 20 15
-2.674761 3.800158 -0.570592 67 50 43
-3.951005 5.613378 1.087219 117 101 65
-2.660998 3.782006 -0.404577 96 78 68
-9.714333 13.811846 3.282296 155 132 101
-2.663881 3.788913 -0.242734 35 37 34
-9.709443 13.815140 3.898402 190 188 150
-2.655460 3.779740 -0.080630 55 38 28
-9.742846 13.867812 4.541239 129 113 90
-2.018289 2.881344 -0.942619 15 15 17
-2.695399 3.849428 0.082026 42 35 25
-2.067325 2.953543 -0.832319 29 28 33
-2.680467 3.830950 0.245037 24 20 17
-2.552668 3.648298 -0.865510 28 36 47
-2.648142 3.786157 0.404228 16 16 16
-2.654305 3.796378 -0.733678 24 28 27
-2.657596 3.802499 0.569617 96 96 88
-2.685355 3.843644 -0.575711 71 61 51
-9.684065 13.866303 2.678784 157 138 108
-2.664892 3.815774 -0.407192 91 71 60
-9.690785 13.881086 3.290692 118 99 67
-2.656354 3.806378 -0.243258 27 33 29
-9.685689 13.884109 3.908300 91 91 57
-2.649113 3.798827 -0.080840 35 25 15
-9.722885 13.947803 4.555733 111 94 74
-1.986162 2.856649 -0.932266 28 27 32
-2.705912 3.893296 0.082759 60 50 40
-2.097030 3.018355 -0.848515 40 43 50
-2.678472 3.856687 0.246084 25 21 18
-2.564555 3.692661 -0.873905 25 28 33
-2.637182 3.798651 0.404577 16 16 16
-2.673697 3.852683 -0.742751 27 33 33
-2.540209 3.661696 0.547193 105 102 87
-2.675315 3.857888 -0.576442 36 47 39
-3.886956 5.605112 1.080336 162 147 118
-2.659502 3.836515 -0.408412 41 34 24
-9.669108 13.953557 3.299851 114 98 65
-9.666009 13.959490 3.919997 95 92 61
-2.639251 3.812984 -0.080944 57 40 32
-9.697470 14.010149 4.565568 108 93 70
-1.969595 2.854025 -0.929160 37 36 42
-2.690034 3.899426 0.082690 41 34 28
-2.124096 3.080202 -0.863812 66 73 81
-2.677462 3.884102 0.247235 32 28 27
-2.569478 3.727453 -0.880011 35 36 41
-2.701912 3.921035 0.416604 18 16 17
-2.672559 3.879887 -0.746192 27 28 32
-2.475625 3.595331 0.535981 101 99 78
-2.660707 3.865568 -0.576198 38 44 42
-9.639856 14.005122 2.692863 117 103 74
-2.658517 3.863830 -0.410329 60 57 50
-9.642594 14.019575 3.307483 117 104 70
-2.673846 3.889016 -0.247340 83 56 47
-9.637091 14.022054 3.928095 105 98 69
-2.651969 3.860082 -0.081747 67 45 34
-9.668197 14.072575 4.574885 114 100 73
-1.963987 2.867258 -0.931231 31 29 42
-2.673017 3.903842 0.082585 38 29 24
-2.128741 3.110112 -0.870111 37 42 48
-2.692083 3.934633 0.249852 29 25 24
-2.587492 3.781768 -0.890696 69 68 74
-2.726451 3.986356 0.422531 18 16 17
-2.679067 3.918545 -0.751824 29 23 25
-2.467540 3.610507 0.536956 101 90 70
-2.677432 3.919088 -0.582779 35 36 40
-9.605171 14.064829 2.697556 122 113 84
-2.682093 3.927382 -0.416082 42 39 34
-9.613523 14.082335 3.314352 126 111 80
-2.679393 3.926371 -0.249119 97 69 55
-9.614442 14.094245 3.938893 118 101 71
-2.664390 3.907315 -0.082550 76 57 43
-9.646225 14.146140 4.587826 105 101 76
-2.009360 2.955574 -0.957630 63 74 80
-2.671737 3.931342 0.082969 73 62 58
-2.111301 3.107852 -0.867411 33 37 46
-2.640182 3.887829 0.246293 24 20 19
-2.574275 3.790777 -0.890696 36 37 41
-2.711400 3.994201 0.422357 18 16 17
-2.667591 3.931142 -0.752450 58 43 40
-2.454922 3.619098 0.536956 94 76 56
-2.661507 3.925124 -0.582292 27 29 26
-9.582617 14.137515 2.705065 131 118 84
-2.665014 3.931773 -0.415559 53 49 46
-9.590737 14.154814 3.323511 129 112 82
-2.679112 3.955544 -0.250375 50 28 7
-9.588128 14.161607 3.948341 119 100 68
-2.668668 3.943089 -0.083108 68 54 43
-9.619209 14.218202 4.599732 77 75 54
-2.067094 3.061135 -0.989724 53 63 72
-2.695175 3.992754 0.084086 43 32 28
-2.110247 3.127392 -0.871010 36 40 49
-2.620137 3.884513 0.245560 22 18 17
-2.575528 3.818377 -0.895276 18 22 25
-2.676562 3.969660 0.418871 17 15 16
-2.675101 3.968988 -0.758081 51 32 25
-2.450196 3.636670 0.538419 123 101 80
-2.673559 3.969689 -0.587654 35 40 33
-9.546981 14.180659 2.707568 135 121 86
-2.657099 3.946737 -0.416256 39 35 32
-9.572529 14.223965 3.332670 131 116 83
-2.674475 3.975541 -0.251108 77 50 33
-9.559903 14.215915 3.955089 122 103 71
-2.680811 3.987964 -0.083876 50 41 32
-9.607159 14.291572 4.614226 38 36 21
-2.056396 3.068331 -0.989724 20 23 30
-2.707933 4.042009 0.084923 43 29 26
-2.100402 3.136358 -0.871460 42 46 55
-2.656560 3.968322 0.250271 26 22 21
-2.564368 3.830607 -0.896039 40 44 47
-2.678202 4.002161 0.421311 16 14 15
-2.676607 4.001288 -0.762462 66 42 30
-2.455141 3.671603 0.542319 133 116 90
-2.681749 4.012004 -0.592529 47 49 46
-9.534737 14.269742 2.718205 144 126 88
-2.652162 3.969240 -0.417650 34 27 19
-9.545718 14.291576 3.340684 128 114 79
-2.660582 3.984853 -0.251108 60 38 24
-9.528613 14.276753 3.962738 126 107 75
-2.661325 3.988980 -0.083702 61 48 40
-9.575439 14.352339 4.623026 40 36 24
-2.030162 3.053326 -0.982477 23 22 30
-2.697528 4.058569 0.085063 50 41 32
-2.098598 3.158644 -0.875510 13 18 24
-2.722271 4.097347 0.257807 24 20 19
-2.554655 3.846522 -0.897566 49 43 45
-2.727431 4.108223 0.431421 15 14 12
-2.673939 4.029176 -0.765903 112 90 77
-2.486660 3.748399 0.552312 178 149 117
-2.682385 4.044968 -0.595941 58 58 58
-9.515436 14.349033 2.726966 150 132 96
-2.682730 4.047021 -0.424797 60 57 52
-9.501948 14.339560 3.343737 134 121 87
-2.673532 4.036205 -0.253725 71 42 28
-9.509574 14.361952 3.976685 123 102 71
-2.667657 4.030390 -0.084365 51 34 26
-9.543031 14.417946 4.632861 57 45 33
-2.009915 3.045882 -0.977818 43 43 55
-2.686648 4.072968 0.085168 41 28 19
-2.117596 3.211504 -0.888107 22 26 27
-2.703938 4.102294 0.257493 24 20 19
-2.562822 3.888200 -0.905198 62 48 45
-2.687861 4.079453 0.427412 17 16 14
-2.668550 4.051683 -0.768406 84 75 70
-2.488843 3.780269 0.555724 137 113 79
-2.694441 4.094103 -0.601791 67 62 59
-9.488836 14.423419 2.734474 144 129 96
-2.681727 4.076335 -0.426889 53 53 51
-9.478805 14.413649 3.353277 130 117 85
-2.684661 4.083899 -0.256132 89 57 44
-9.480787 14.427630 3.985683 125 104 73
-2.697487 4.106532 -0.085761 60 43 36
-9.522993 14.502887 4.648908 87 68 53
-2.000329 3.054496 -0.978336 92 95 112
-2.677890 4.090687 0.085342 80 63 53
-2.113843 3.230290 -0.891256 29 30 35
-2.701255 4.127951 0.258540 27 26 24
-2.656706 4.061419 -0.943360 40 23 13
-2.756474 4.215544 0.440659 20 19 17
-2.661956 4.072548 -0.770596 70 60 59
-2.509292 3.840450 0.563280 157 136 105
-2.690988 4.120104 -0.604228 73 63 54
-9.477308 14.516000 2.745738 120 106 77
-2.678374 4.102355 -0.428632 46 48 47
-2.685667 4.116663 -0.257598 72 58 45
-4.164307 6.385598 1.760017 95 77 57
-2.684228 4.117598 -0.085796 42 24 20
-4.186193 6.421606 2.053988 107 92 63
-1.998076 3.074418 -0.982477 148 159 179
-2.689741 4.140255 0.086180 75 66 59
-2.100431 3.234381 -0.890356 29 31 44
-2.709673 4.172531 0.260738 19 19 17
-2.655340 4.090428 -0.947939 75 61 48
-2.755841 4.246867 0.442925 17 16 14
-2.672449 4.119932 -0.777792 95 72 66
-2.630871 4.057384 0.593747 117 106 78
-2.684148 4.141132 -0.605934 95 77 63
-4.133259 6.379276 1.203920 135 117 81
-2.678122 4.133416 -0.430898 60 60 58
-4.118527 6.358971 1.472664 132 116 82
-2.688648 4.152838 -0.259272 53 39 30
-4.107052 6.346107 1.745170 109 91 69
-2.662236 4.115190 -0.085552 79 66 60
-4.157455 6.426447 2.050882 110 96 69
-1.983144 3.074880 -0.980407 158 175 201
-2.718614 4.216846 0.087576 24 21 16
-2.096518 3.253159 -0.893506 107 116 133
-2.715995 4.216014 0.262831 19 19 19
-2.661247 4.131031 -0.955190 39 32 24
-2.746393 4.264837 0.443797 15 14 12
-2.684782 4.170760 -0.785614 37 33 30
-2.753112 4.278551 0.624702 117 110 84
-2.695450 4.190546 -0.611784 78 64 61
-4.102464 6.377995 1.201104 140 124 90
-2.649669 4.120953 -0.428632 66 70 69
-4.088875 6.361748 1.469993 137 118 85
-2.686011 4.180682 -0.260424 44 33 29
-4.078557 6.350566 1.742471 110 94 71
-2.712674 4.225423 -0.087646 41 40 38
-4.120309 6.420506 2.044153 94 82 58
-1.970316 3.078529 -0.979371 139 160 191
-2.700645 4.221257 0.087471 27 26 24
-2.093549 3.273591 -0.897105 121 136 157
-2.725672 4.262015 0.265134 21 20 18
-2.648926 4.143603 -0.955953 39 36 29
-2.740072 4.287828 0.445192 16 16 16
-2.680841 4.196754 -0.788743 35 37 36
-2.808671 4.398559 0.640789 127 122 90
-2.697894 4.226701 -0.615684 48 54 52
-4.069498 6.378001 1.198288 124 110 83
-2.697426 4.227594 -0.438742 59 63 62
-4.066644 6.375982 1.469993 129 109 76
-2.707908 4.247292 -0.263983 67 62 58
-4.056364 6.364764 1.742471 93 81 57
-2.698982 4.236553 -0.087681 38 38 36
-4.081269 6.408777 2.035871 115 103 81
-1.971987 3.104957 -0.985583 158 181 213
-2.697683 4.249228 0.087855 25 24 22
-2.081065 3.279234 -0.896655 71 78 86
-2.737533 4.313662 0.267751 20 19 17
-2.651273 4.179349 -0.962059 46 46 44
-2.733624 4.310828 0.446586 16 16 16
-2.673578 4.217765 -0.790933 38 44 44
-2.901675 4.579371 0.665650 144 131 97
-2.690559 4.247832 -0.617390 33 45 45
-4.040926 6.379779 1.196098 82 74 51
-2.705034 4.272335 -0.442403 47 49 48
-4.030713 6.368573 1.465032 148 125 94
-2.690930 4.253342 -0.263773 44 44 44
-4.028914 6.370650 1.740221 71 49 36
-2.705548 4.279754 -0.088379 31 32 26
-4.050618 6.409920 2.031729 124 111 92
-1.967316 3.121628 -0.988689 181 205 239
-2.724403 4.324605 0.089217 35 34 32
-2.058183 3.268339 -0.891706 42 49 57
-2.742680 4.355303 0.269740 18 18 16
-2.682687 4.261683 -0.978850 35 39 40
-2.748271 4.367560 0.451467 15 15 15
