-1.750360 3.858921 -0.221153 
-1.750612 3.909016 -0.225697 
-1.721852 3.893496 -0.223129 
-1.700344 3.894252 -0.222338 
-1.669549 3.872902 -0.219178 
-1.645904 3.867874 -0.217795 
-1.618548 3.853511 -0.215424 
-1.591363 3.838976 -0.213054 
-1.570357 3.821809 -0.210683 
-1.550122 3.823620 -0.210090 
-1.759857 4.161202 -0.001321 
-1.534996 3.838292 -0.210881 
-1.764454 3.899357 -0.188914 
-1.710630 4.097370 0.002208 
-1.521203 3.856619 -0.212066 
-1.753471 3.923951 -0.190543 
-1.692053 4.107237 0.002118 
-1.494494 3.841433 -0.209695 
-1.723550 3.906727 -0.188009 
-1.655625 4.072494 0.004199 
-1.484788 3.870784 -0.212066 
-1.692217 3.885666 -0.185113 
-1.619407 4.028980 -0.474288 
-1.625425 4.052370 0.005557 
-1.460300 3.860945 -0.210288 
-1.668303 3.880822 -0.183846 
-1.600403 4.036566 -0.474288 
-1.596899 4.035776 0.006733 
-1.446191 3.878999 -0.211473 
-1.639736 3.864867 -0.181492 
-1.568605 4.010850 -0.468800 
-1.578578 4.045122 0.006643 
-1.427896 3.885770 -0.211473 
-1.613698 3.854227 -0.179682 
-1.572246 4.066871 0.005828 
-1.423038 3.910856 -0.213646 
-1.589184 3.829919 -0.176786 
-1.564272 4.104173 0.004380 
-1.413173 3.941927 -0.216214 
-1.561923 3.815303 -0.174614 
-1.562207 4.158359 0.002118 
-1.407604 3.986157 -0.220165 
-1.537109 3.806042 -0.172985 
-1.649230 3.911576 -0.427525 
-1.550787 4.188206 0.001032 
-1.402292 4.032304 -0.224314 
-1.510919 3.792941 -0.170994 
-1.642349 3.946638 -0.431885 
-1.490808 3.794472 -0.170451 
-1.626021 3.959811 -0.432757 
-1.469253 3.792192 -0.169546 
-1.607343 3.967430 -0.432757 
-1.656097 4.061767 0.046563 
-1.455703 3.810210 -0.170632 
-1.589374 3.976793 -0.433048 
-1.621801 4.032529 0.047997 
-1.442729 3.830043 -0.171899 
-1.579832 3.989108 -0.434210 
-1.600112 4.015377 0.048858 
-1.442019 3.864343 -0.174795 
-1.797417 3.960978 -0.157290 
-1.562478 4.000186 -0.434792 
-1.596018 4.059988 0.047423 
-1.446171 3.930776 -0.180587 
-1.772297 3.954814 -0.155978 
-1.534942 3.985398 -0.431304 
-1.587872 4.095352 0.046347 
-1.437990 3.965571 -0.183303 
-1.744094 3.941190 -0.154010 
-1.428831 3.998504 -0.185837 
-1.721567 3.940209 -0.153190 
-1.427467 4.053935 -0.190543 
-1.684300 3.904238 -0.149253 
-1.662804 3.904777 -0.148597 
-1.629925 3.877566 -0.145480 
-1.604111 3.866746 -0.143840 
-1.672666 3.835081 -0.375058 
-1.583744 3.851436 -0.142035 
-1.657664 3.850220 -0.376141 
-1.554510 3.831081 -0.139575 
-1.884144 4.107116 -0.128029 
-1.660122 3.907359 -0.383453 
-1.530606 3.823523 -0.138263 
-1.848930 4.081518 -0.125267 
-1.640935 3.913307 -0.383182 
-1.498885 3.795381 -0.135146 
-1.814825 4.057497 -0.122650 
-1.623222 3.922832 -0.383453 
-1.474579 3.785645 -0.133670 
-1.791602 4.056904 -0.121923 
-1.584061 3.878942 -0.375870 
-1.464454 3.813069 -0.135474 
-1.757114 4.030650 -0.119160 
-1.589095 3.945326 -0.384536 
-1.453409 3.838614 -0.137114 
-1.727709 4.015127 -0.117270 
-1.569765 3.950924 -0.384265 
-1.721844 3.826126 -0.337406 
-1.586556 4.015404 0.084926 
-1.446267 3.875369 -0.139739 
-1.700862 4.004911 -0.115816 
-1.531914 3.908345 -0.376953 
-1.704612 3.836005 -0.337658 
-1.438810 3.912141 -0.142363 
-1.672586 3.990862 -0.114071 
-1.540805 3.968686 -0.385078 
-1.691741 3.839531 -0.337406 
-1.445285 3.969201 -0.146956 
-1.652277 3.977722 -0.112617 
-1.521388 3.974048 -0.384807 
-1.676839 3.854718 -0.338417 
-1.439797 4.013573 -0.150237 
-1.621233 3.956006 -0.110291 
-1.506775 3.992322 -0.386432 
-1.657862 3.860759 -0.338164 
-1.434574 4.059864 -0.153682 
-1.595742 3.947000 -0.108983 
-1.471633 3.954705 -0.379932 
-1.638079 3.864885 -0.337658 
-1.425085 4.094875 -0.156142 
-1.567371 3.930449 -0.107092 
-1.623733 3.881689 -0.338923 
-1.543642 3.924829 -0.106075 
-1.606959 3.892956 -0.339429 
-1.527328 3.937625 -0.106511 
-1.588596 3.900485 -0.339429 
-1.521064 3.976376 -0.108983 
-1.573202 3.915273 -0.340440 
-1.521621 4.033775 -0.112908 
-1.841159 4.027838 -0.085592 
-1.559404 3.916519 -0.339934 
-1.517454 4.060907 -0.114653 
-1.810603 3.993506 -0.082741 
-1.540930 3.923824 -0.339934 
-1.517217 4.118439 -0.118579 
-1.807859 4.038521 -0.085333 
-1.526790 3.942115 -0.341452 
-1.504711 4.144252 -0.120033 
-1.777662 4.021374 -0.083519 
-1.504600 3.940021 -0.340187 
-1.497458 4.185031 -0.122650 
-1.750817 4.011367 -0.082223 
-1.492411 3.963739 -0.342463 
-1.721770 3.995685 -0.080539 
-1.472312 3.967016 -0.341958 
-1.700042 3.779807 -0.300715 
-1.692909 3.979818 -0.078854 
-1.457760 3.985064 -0.343475 
-1.681417 3.785957 -0.300476 
-1.663476 3.961924 -0.077041 
-1.438280 3.990027 -0.343222 
-1.653340 3.770133 -0.297370 
-1.635001 3.945690 -0.075356 
-1.642552 3.794327 -0.299520 
-1.605972 3.927424 -0.073542 
-1.629852 3.797639 -0.299281 
-1.583291 3.906491 -0.071728 
-1.614990 3.812610 -0.300237 
-1.556111 3.891616 -0.070174 
-1.594742 3.814667 -0.299520 
-1.531989 3.884017 -0.069137 
-1.577494 3.823981 -0.299759 
-1.515093 3.894922 -0.069396 
-1.831222 4.131228 -0.049219 
-1.560194 3.833215 -0.299998 
-1.509378 3.935639 -0.071728 
-1.784156 4.077770 -0.045436 
-1.542113 3.840525 -0.299998 
-1.502619 3.974518 -0.073931 
-1.766525 4.089790 -0.045658 
-1.529035 3.860704 -0.301670 
-1.742572 3.860525 -0.265885 
-1.499640 4.024665 -0.076911 
-1.735324 4.070584 -0.043989 
-1.505849 3.854888 -0.299998 
-1.730925 3.883181 -0.267630 
-1.496221 4.074872 -0.079891 
-1.707485 4.058520 -0.042765 
-1.497961 3.870738 -0.301432 
-1.706495 3.861398 -0.264359 
-1.493474 4.107747 -0.081834 
-1.683035 4.036287 -0.041096 
-1.481793 3.883333 -0.302148 
-1.677798 3.845773 -0.261524 
-1.489986 4.159928 -0.084944 
-1.657058 4.027594 -0.040095 
-1.462789 3.888410 -0.301909 
-1.649287 3.829963 -0.258689 
-1.477550 4.187648 -0.086369 
-1.625105 4.003980 -0.038203 
-1.445128 3.897126 -0.302148 
-1.650158 3.881487 -0.263923 
-1.597931 3.991251 -0.036980 
-1.428087 3.907631 -0.302626 
-1.631849 3.889220 -0.263923 
-1.579105 3.998737 -0.036980 
-1.409657 3.914317 -0.302626 
-1.618906 3.909692 -0.265449 
-1.574227 4.041404 -0.039094 
-1.394457 3.930294 -0.303821 
-1.598938 3.913606 -0.265013 
-1.568981 4.084114 -0.041208 
-1.375921 3.936821 -0.303821 
-1.580478 3.921097 -0.265013 
-1.559057 4.115684 -0.042654 
-1.356084 3.939499 -0.303343 
-1.564966 3.935873 -0.265885 
-1.556676 4.167782 -0.045324 
-1.552594 3.940770 -0.265885 
-1.556946 4.208159 -0.047439 
-1.534006 3.948042 -0.265885 
-1.549608 4.249147 -0.049441 
-1.516830 3.958931 -0.266321 
-1.497443 3.964180 -0.266103 
-1.480861 3.976769 -0.266757 
-1.462105 3.983703 -0.266757 
-1.446066 3.998010 -0.267630 
-1.426531 4.002912 -0.267412 
-1.404528 3.981184 -0.264359 
-1.398370 4.023362 -0.268502 
